# .PCD v0.7 - Point Cloud Data file format
VERSION 0.7
FIELDS x y z
SIZE 4 4 4
TYPE F F F
COUNT 1 1 1
WIDTH 1467
HEIGHT 1
VIEWPOINT 0 0 0 1 0 0 0
POINTS 1467
DATA ascii
-27.260221 -14.657507 -8.9267607
-27.258875 -16.673058 -10.830459
-27.258167 -16.515198 -10.791828
-27.25659 -17.085533 -4.6182671
-27.254364 -17.895285 -15.43177
-27.253717 -17.843847 -15.325891
-27.250271 -17.944471 -15.557961
-27.249701 -13.81321 -7.5204749
-27.248432 -17.55575 -4.443944
-27.2474 -17.647001 -13.253059
-27.243322 -19.715609 -16.766378
-27.241238 -20.047752 -16.884409
-27.241106 -16.883585 -11.315871
-27.239948 -13.927348 -6.87923
-27.239239 -17.546152 -13.805618
-27.238468 -16.92454 -11.613551
-27.238077 -15.538884 -10.057109
-27.234562 -15.72014 -10.427203
-27.234537 -15.206859 -9.4996214
-27.231958 -15.063963 -9.3114367
-27.23086 -14.947966 -9.2273865
-27.225946 -15.937719 -5.1065121
-27.225161 -15.254516 -9.571846
-27.223721 -13.860907 -7.6380138
-27.223564 -18.689072 -16.57291
-27.220423 -19.484871 -16.725241
-27.219957 -17.545904 -14.454751
-27.219919 -16.350431 -4.9055519
-27.219116 -16.078545 -10.683352
-27.214512 -17.909555 -15.350446
-27.212904 -16.961227 -11.782997
-27.212172 -13.831985 -7.1837931
-27.211214 -17.72014 -12.82132
-27.209906 -17.700495 -15.030285
-27.208897 -17.890432 -4.1046491
-27.20661 -17.820217 -15.151257
-27.205753 -17.2813 -12.524973
-27.204775 -17.582397 -13.44441
-27.20303 -18.287636 -16.386585
-27.202366 -17.710739 -13.151282
-27.196344 -17.609941 -14.834458
-27.195524 -16.976332 -11.210811
-27.195303 -18.008924 -15.839775
-27.193947 -18.0187 -15.692103
-27.193676 -14.054667 -7.931325
-27.193369 -18.564234 -16.509295
-27.19268 -19.895391 -16.802687
-27.189276 -18.15037 -16.216829
-27.18911 -14.358995 -6.2006602
-27.187504 -16.950573 -11.479334
-27.187256 -18.232306 -16.328249
-27.187008 -17.228546 -4.5159111
-27.186184 -16.832731 -10.885849
-27.186014 -15.671271 -10.229774
-27.182713 -20.281057 -17.046541
-27.181358 -17.795116 -13.063526
-27.176706 -17.867834 -12.932493
-27.174582 -17.957325 -15.408195
-27.17424 -17.784216 -4.2614751
-27.174175 -15.316702 -9.6482153
-27.1717 -17.178988 -12.36924
-27.170782 -13.950855 -6.6977091
-27.163935 -17.62373 -14.229184
-27.161652 -17.418701 -4.4503732
-27.161592 -18.073055 -15.964864
-27.161539 -17.587671 -4.3651018
-27.1595 -13.812943 -7.345829
-27.15694 -17.59223 -14.612389
-27.154617 -17.677006 -13.204825
-27.154543 -15.911317 -10.59578
-27.154076 -14.892686 -5.6324501
-27.15382 -14.348885 -6.167171
-27.148911 -17.923206 -15.246712
-27.148153 -17.584879 -12.683764
-27.147898 -14.540311 -5.94981
-27.147816 -15.221834 -5.4304042
-27.14397 -17.576614 -13.629635
-27.143965 -14.727085 -5.7597561
-27.14369 -17.027012 -11.03369
-27.141838 -17.078007 -12.03224
-27.14031 -17.134815 -12.175712
-27.140244 -13.859469 -6.9711442
-27.135683 -15.077034 -9.2398024
-27.135183 -15.529948 -9.9245005
-27.134777 -18.062225 -15.758652
-27.131777 -13.844037 -7.4933238
-27.131659 -15.191555 -9.3496656
-27.129078 -17.604006 -13.818341
-27.127565 -14.403524 -8.3820257
-27.12682 -15.280176 -9.4965801
-27.125662 -19.063517 -16.632641
-27.125387 -18.482189 -16.454979
-27.123686 -17.654127 -13.997615
-27.122196 -14.265053 -6.2485509
-27.120802 -16.255844 -10.737131
-27.120644 -13.944439 -7.6683912
-27.119329 -18.021 -15.53143
-27.1185 -17.474688 -12.57827
-27.11339 -14.019168 -6.538651
-27.113062 -17.689375 -14.109616
-27.111671 -17.039778 -4.5809379
-27.10951 -15.660821 -5.208858
-27.108858 -14.845854 -9.025281
-27.108809 -17.794058 -15.024854
-27.108442 -19.310682 -16.684319
-27.106337 -17.642786 -4.259933
-27.104378 -16.708036 -10.875126
-27.104227 -17.415827 -4.3572021
-27.102541 -18.839218 -16.567047
-27.102266 -16.87719 -4.656208
-27.101801 -17.675251 -13.298326
-27.100988 -17.531414 -4.2918482
-27.100742 -16.988184 -10.972636
-27.098766 -17.871052 -15.099501
-27.098551 -17.74011 -13.164243
-27.097044 -18.141983 -16.069288
-27.096859 -17.06493 -11.167272
-27.094351 -14.214431 -8.0644732
-27.091753 -16.008137 -5.0560679
-27.084846 -17.698341 -14.030558
-27.084715 -16.648001 -4.772696
-27.084644 -14.351765 -6.117403
-27.082842 -18.080309 -15.666184
-27.082041 -17.056927 -11.300362
-27.081287 -17.827826 -4.0668802
-27.075504 -17.048975 -11.436985
-27.074839 -17.656744 -14.301466
-27.074051 -20.19508 -16.956625
-27.070972 -13.8241 -7.1942029
-27.070847 -17.704765 -14.205323
-27.068077 -17.869453 -12.986874
-27.067787 -17.077646 -11.920724
-27.06715 -18.102554 -15.806791
-27.066931 -14.691964 -8.7025394
-27.066301 -16.153111 -4.9649739
-27.066248 -17.434273 -4.2664409
-27.064291 -13.899056 -6.796031
-27.063862 -17.623669 -14.439025
-27.060099 -17.936329 -12.926319
-27.059805 -17.078907 -11.758774
-27.0597 -17.56798 -4.1934199
-27.05851 -17.711294 -4.156558
-27.057343 -18.652292 -16.506042
-27.057262 -14.991392 -5.54071
-27.057072 -18.36945 -16.351498
-27.057055 -19.805395 -16.764294
-27.056015 -17.240267 -4.4396362
-27.053928 -19.961082 -16.819862
-27.053719 -16.498297 -10.798387
-27.052078 -19.56962 -16.715654
-27.049572 -17.087673 -4.524086
-27.049152 -17.07349 -11.590883
-27.049086 -17.743711 -14.073333
-27.046461 -15.649118 -10.045122
-27.04623 -15.035127 -9.1403408
-27.044659 -20.400845 -17.153297
-27.043789 -17.313868 -4.3298998
-27.042645 -17.817396 -3.925983
-27.035074 -13.830744 -7.044888
-27.034718 -18.030706 -15.333252
-27.033579 -17.637465 -4.0873728
-27.033163 -18.267733 -16.232542
-27.032391 -13.895466 -7.468379
-27.03146 -17.854391 -15.000105
-27.028492 -17.456257 -4.1826749
-27.028042 -16.358923 -4.8913512
-27.027624 -17.721762 -13.955338
-27.027163 -16.149309 -10.688155
-27.025824 -17.620781 -13.465891
-27.025776 -17.651123 -14.666279
-27.024738 -14.106275 -6.3788152
-27.02383 -17.535461 -4.0889568
-27.021765 -17.099276 -11.021779
-27.019934 -18.161856 -15.933882
-27.018595 -15.461615 -9.7408838
-27.01853 -17.730465 -4.0019832
-27.017677 -17.729708 -14.875857
-27.014526 -17.667316 -13.830553
-27.014256 -15.145445 -9.2270279
-27.010424 -18.209667 -16.12751
-27.009457 -17.771069 -13.23249
-27.008694 -17.480801 -12.436549
-27.006422 -13.832893 -7.3079782
-27.006325 -17.832659 -3.796144
-27.005697 -17.147493 -11.09969
-27.004204 -15.305919 -9.4018288
-27.003132 -17.959156 -15.11082
-27.002926 -17.33569 -4.2391539
-27.002611 -17.723543 -14.323695
-27.001913 -17.771643 -12.717306
-26.998999 -15.90157 -10.377099
-26.99752 -17.61788 -3.9863501
-26.995832 -15.809726 -5.131578
-26.995773 -17.854216 -13.110364
-26.995043 -18.943478 -16.56752
-26.99431 -17.762119 -3.8804741
-26.99398 -14.127805 -7.776773
-26.993576 -16.919931 -10.956023
-26.992111 -17.958059 -12.829932
-26.989902 -18.131865 -15.674266
-26.989359 -17.792477 -14.176416
-26.98912 -16.339756 -10.748294
-26.988422 -17.938766 -12.970953
-26.985962 -17.176716 -11.27734
-26.985464 -18.793072 -16.52532
-26.985168 -17.64443 -13.656842
-26.984911 -19.143677 -16.607538
-26.984526 -18.196669 -16.028334
-26.984026 -20.278921 -17.008448
-26.983538 -15.37138 -9.5333376
-26.982767 -18.084646 -15.523926
-26.981531 -17.137323 -11.510471
-26.979052 -17.686537 -3.9000249
-26.977798 -16.699602 -10.890957
-26.977459 -13.923605 -6.6123281
-26.976625 -17.359955 -12.261307
-26.976278 -17.521202 -4.0000081
-26.974138 -17.666805 -12.58277
-26.973854 -13.858981 -6.8823481
-26.972696 -17.40761 -4.1027112
-26.966629 -16.907513 -4.5973659
-26.965536 -16.815092 -10.942806
-26.965004 -15.606804 -9.8854942
-26.963453 -13.998103 -7.5311251
-26.958101 -17.229782 -11.197079
-26.955935 -17.753536 -13.35421
-26.954304 -17.180124 -4.3388829
-26.952084 -14.765774 -5.681736
-26.95137 -18.542986 -16.417299
-26.950462 -15.123899 -5.4714832
-26.948988 -15.798236 -10.162112
-26.947386 -17.280603 -12.068769
-26.946293 -14.003679 -6.4862199
-26.945862 -16.455185 -10.779222
-26.945812 -19.352571 -16.657064
-26.943993 -20.349325 -17.051718
-26.943714 -16.081905 -10.559276
-26.93882 -17.44965 -3.969445
-26.938566 -17.027559 -4.472785
-26.937216 -14.372986 -6.050427
-26.936785 -17.731365 -3.7928879
-26.935596 -17.806953 -3.6770451
-26.935167 -17.084608 -11.018152
-26.932074 -17.912302 -14.926832
-26.930546 -15.358356 -5.3263998
-26.930267 -17.811239 -13.994658
-26.928905 -17.579556 -3.862788
-26.927589 -13.835256 -7.1075401
-26.927107 -17.996243 -12.941647
-26.927052 -17.736237 -14.695549
-26.9258 -17.744696 -13.853183
-26.925772 -14.191854 -6.1981759
-26.92514 -17.243771 -4.1943359
-26.924601 -19.72286 -16.738573
-26.923473 -16.662024 -4.6888738
-26.918411 -14.537805 -5.8798132
-26.917091 -17.212984 -11.588552
-26.916975 -15.269673 -9.2795734
-26.915628 -15.937776 -5.0495172
-26.91395 -17.811541 -3.5294051
-26.912439 -18.128437 -15.615011
-26.91217 -17.254658 -11.442183
-26.911898 -17.700037 -13.747096
-26.910601 -18.163166 -15.77925
-26.910536 -17.849104 -13.252698
-26.90984 -18.222363 -16.055012
-26.909418 -17.823853 -14.779961
-26.908682 -20.103073 -16.880409
-26.907907 -18.094099 -15.375514
-26.906601 -17.198923 -11.069499
-26.906523 -18.854185 -16.524561
-26.906225 -17.86434 -14.14617
-26.903307 -18.008802 -15.041481
-26.902765 -17.828459 -14.286332
-26.901924 -17.243191 -11.89191
-26.900585 -18.202158 -15.949928
-26.898319 -16.673475 -10.859712
-26.897589 -17.261425 -11.142631
-26.897461 -18.272905 -16.137156
-26.896946 -13.878994 -6.7305999
-26.896309 -15.015356 -9.0486317
-26.893196 -13.908366 -7.3544841
-26.890949 -17.23369 -11.724717
-26.890863 -17.29417 -11.306139
-26.889782 -17.308044 -4.0340042
-26.888634 -17.429165 -3.8854599
-26.887703 -18.345858 -16.240364
-26.886889 -15.5945 -5.19736
-26.884748 -18.709858 -16.482435
-26.882736 -17.735653 -14.497306
-26.880175 -13.857818 -6.9505839
-26.875694 -19.003418 -16.555363
-26.875023 -14.962996 -8.8490839
-26.874058 -17.964672 -13.039786
-26.873577 -16.212645 -10.647467
-26.873573 -17.736506 -13.497783
-26.873358 -16.915276 -10.981002
-26.872641 -17.497377 -3.76316
-26.871813 -16.303864 -10.723236
-26.87077 -17.802179 -13.867526
-26.870634 -17.116255 -4.276433
-26.869913 -17.925554 -13.164909
-26.869226 -14.622472 -8.3815651
-26.868896 -20.312038 -17.020493
-26.867466 -17.728287 -13.645767
-26.86726 -16.073141 -4.9689832
-26.866642 -18.129202 -15.494524
-26.866034 -15.387274 -9.379878
-26.864676 -17.40715 -3.8183479
-26.864115 -16.436182 -10.770143
-26.86125 -17.015642 -4.3813229
-26.859184 -18.072039 -15.1858
-26.858063 -16.398052 -4.8152671
-26.855663 -14.937499 -5.5688548
-26.854929 -17.695023 -3.439708
-26.854364 -17.820507 -14.656123
-26.852894 -16.580149 -10.815547
-26.851603 -16.812696 -10.949193
-26.850254 -17.488672 -12.181458
-26.849285 -16.937128 -4.4631019
-26.848448 -19.911428 -16.792751
-26.848093 -16.855423 -4.532968
-26.847576 -19.179853 -16.626804
-26.847506 -14.117881 -7.5645499
-26.846746 -17.146917 -4.1630268
-26.84655 -13.953011 -6.5060201
-26.845507 -14.213043 -7.7218342
-26.844641 -16.746122 -4.6266398
-26.842293 -18.454214 -16.331629
-26.841331 -17.719776 -12.473477
-26.838949 -17.793005 -13.75558
-26.838003 -17.67433 -3.657022
-26.837004 -17.320578 -3.9004221
-26.834616 -17.843077 -13.370477
-26.834354 -17.370739 -3.762311
-26.833969 -18.008825 -12.925909
-26.831686 -17.949627 -14.757513
-26.831675 -15.148856 -9.1659031
-26.831512 -17.502367 -3.658736
-26.829748 -19.547001 -16.710514
-26.826488 -15.634044 -9.7353954
-26.825895 -13.870763 -7.1674571
-26.824455 -18.148735 -15.621998
-26.820618 -14.031559 -7.3823848
-26.818102 -20.42366 -17.094023
-26.817677 -17.905165 -14.201335
-26.815779 -17.884996 -14.051913
-26.811836 -14.388282 -7.9836702
-26.810713 -18.203184 -15.876646
-26.809263 -19.339071 -16.670416
-26.809208 -18.038418 -14.960647
-26.808622 -20.263784 -16.974016
-26.803806 -19.74456 -16.758816
-26.802994 -17.390963 -3.625627
-26.802105 -17.543543 -3.5307169
-26.801201 -13.865669 -6.808785
-26.800081 -14.031416 -6.3662658
-26.79991 -17.165331 -4.0415158
-26.799078 -17.86297 -13.884347
-26.79884 -17.901543 -14.356447
-26.79871 -18.118925 -15.370148
-26.79727 -17.627939 -12.310381
-26.796741 -17.243433 -3.741709
-26.796663 -14.261696 -6.1098318
-26.796021 -16.608208 -4.6663141
-26.795938 -14.35807 -5.9970078
-26.794163 -17.386179 -3.4902849
-26.793493 -17.355591 -11.238046
-26.792984 -16.172287 -4.9204221
-26.792454 -17.925835 -13.257567
-26.792194 -15.768256 -9.9337988
-26.791279 -18.047327 -12.803287
-26.788706 -17.814041 -13.59701
-26.788557 -17.177534 -3.5470009
-26.787367 -17.270596 -3.618356
-26.785948 -17.054787 -11.012609
-26.785774 -17.013109 -4.278419
-26.784718 -17.323067 -11.134191
-26.784031 -17.083138 -4.1623321
-26.783308 -17.215181 -11.058514
-26.78232 -16.222986 -10.567631
-26.781437 -18.856367 -16.533655
-26.781197 -13.906021 -6.590178
-26.780367 -17.216345 -3.8867011
-26.779955 -16.943624 -10.987271
-26.779755 -18.130829 -15.50353
-26.779154 -17.41301 -11.968865
-26.778534 -18.240267 -16.016958
-26.778482 -16.458502 -4.7261062
-26.777981 -14.863636 -8.5998507
-26.77705 -15.718504 -5.1350331
-26.775373 -17.849043 -13.467014
-26.774122 -16.863482 -4.4385939
-26.771912 -17.12965 -3.7222071
-26.771341 -13.882498 -6.884737
-26.771233 -17.91173 -14.552186
-26.770899 -17.985338 -13.135026
-26.765362 -15.10614 -5.4611259
-26.764931 -15.518296 -9.5126925
-26.764923 -17.0238 -3.7093871
-26.764627 -17.527618 -12.077979
-26.7645 -18.302057 -16.157026
-26.762941 -18.154324 -15.758019
-26.760805 -17.421291 -11.380242
-26.760674 -13.870012 -6.6864691
-26.760075 -18.591452 -16.426388
-26.757141 -17.964756 -12.611111
-26.757059 -18.011593 -13.016796
-26.756718 -16.438082 -10.74913
-26.754402 -17.402544 -11.647047
-26.752695 -14.589836 -5.7807851
-26.752369 -16.753992 -10.922216
-26.751617 -14.764463 -5.6785369
-26.751328 -18.723988 -16.48308
-26.747332 -16.128803 -10.438935
-26.745623 -13.873569 -6.973218
-26.743206 -19.027601 -16.625847
-26.74234 -13.962283 -7.2153211
-26.739199 -18.037737 -14.815071
-26.739109 -14.134628 -7.4185009
-26.736652 -18.380501 -16.256134
-26.732889 -16.664679 -4.583899
-26.731546 -13.935352 -6.4677162
-26.729546 -16.891232 -10.968033
-26.728924 -16.567623 -10.808065
-26.727993 -16.899227 -3.7900009
-26.727684 -18.004532 -14.670396
-26.72744 -17.616096 -12.186621
-26.726303 -17.468622 -11.833156
-26.724909 -17.074896 -3.890769
-26.723936 -17.932083 -13.371301
-26.723886 -17.091423 -4.0073142
-26.720558 -17.877396 -13.709966
-26.719496 -15.857587 -5.0484781
-26.719429 -17.92753 -14.113793
-26.718931 -17.95089 -14.256286
-26.718452 -16.504877 -4.6809001
-26.717823 -18.076132 -15.089436
-26.717514 -16.972364 -3.838552
-26.715744 -17.006599 -4.162179
-26.714716 -20.379536 -17.026279
-26.714216 -14.147303 -6.2082009
-26.714096 -17.904072 -13.979569
-26.70928 -16.192953 -4.877872
-26.708794 -16.676682 -10.872678
-26.708166 -14.443676 -5.9322562
-26.706324 -18.140554 -15.606262
-26.70248 -17.970894 -14.414023
-26.701675 -16.268873 -4.801784
-26.701178 -16.228029 -10.524554
-26.69956 -19.393734 -16.719234
-26.699253 -19.833561 -16.788603
-26.698214 -18.03056 -12.91219
-26.697304 -17.494534 -11.518497
-26.695185 -20.076452 -16.846605
-26.694651 -18.198483 -15.882383
-26.694048 -18.088497 -15.261358
-26.691261 -15.996398 -10.158977
-26.689741 -16.370804 -10.668278
-26.689047 -16.804443 -3.9303739
-26.688288 -16.857731 -4.334506
-26.685236 -17.989819 -14.544315
-26.685097 -18.109676 -15.444899
-26.683964 -16.719742 -4.45994
-26.683487 -15.966895 -4.986814
-26.683222 -16.999741 -10.995059
-26.682451 -14.244098 -7.5839858
-26.678129 -19.683947 -16.77067
-26.677778 -17.830816 -12.418784
-26.677723 -16.95459 -4.0672541
-26.677423 -17.982946 -13.224298
-26.676332 -19.210791 -16.683849
-26.674475 -13.880267 -6.709518
-26.673538 -15.220745 -8.9979
-26.6733 -20.340094 -16.979912
-26.67186 -14.802101 -8.3906679
-26.67178 -15.248178 -5.3548322
-26.671415 -18.789787 -16.525854
-26.667089 -16.885323 -3.992018
-26.662661 -14.660799 -8.2081451
-26.660892 -15.462568 -5.23946
-26.660309 -14.056971 -7.2712088
-26.660198 -16.348541 -4.734364
-26.659197 -17.903746 -13.515364
-26.658487 -18.032393 -14.941464
-26.657099 -17.880026 -13.853288
-26.651962 -16.769279 -10.917995
-26.650095 -18.464737 -16.353178
-26.64863 -17.713438 -12.236018
-26.648603 -15.391409 -9.2366371
-26.646851 -19.519213 -16.745394
-26.646721 -13.885818 -6.7996449
-26.646255 -18.059551 -12.770771
-26.645651 -13.918473 -7.0420518
-26.64142 -17.908329 -14.176036
-26.640615 -14.888668 -5.5857892
-26.63978 -14.274822 -6.068985
-26.639702 -16.029766 -4.9216962
-26.639391 -16.448917 -4.6537461
-26.638975 -16.836182 -4.225039
-26.637747 -17.094078 -11.014809
-26.636976 -17.498056 -11.315342
-26.636343 -13.92713 -6.5117931
-26.636333 -13.891697 -6.6052208
-26.635965 -17.785643 -12.307781
-26.635529 -16.810146 -4.1294169
-26.635496 -16.320721 -10.556627
-26.635426 -18.691992 -16.486858
-26.635118 -17.344147 -11.103881
-26.633942 -17.459311 -11.200019
-26.633505 -17.198538 -11.049135
-26.633434 -17.993675 -14.772734
-26.632624 -17.605959 -11.971767
-26.631927 -17.878214 -13.954876
-26.630989 -17.879322 -14.052265
-26.630363 -14.518591 -5.8642731
-26.62985 -16.548771 -4.5366759
-26.627748 -17.998251 -13.034878
-26.625019 -18.191891 -15.986185
-26.623995 -16.677477 -4.1016221
-26.621881 -17.987471 -14.632946
-26.619564 -18.320715 -16.189255
-26.619463 -18.239853 -16.088505
-26.619261 -17.581953 -11.635416
-26.619072 -20.317253 -16.953714
-26.618332 -14.05833 -6.2967949
-26.617514 -20.225361 -16.904688
-26.613556 -19.972456 -16.818951
-26.612623 -16.270203 -10.469049
-26.610826 -16.08646 -4.8527369
-26.610405 -16.664474 -4.387228
-26.608871 -16.917599 -10.951917
-26.608034 -18.378042 -16.274637
-26.605568 -17.9137 -14.311372
-26.604759 -14.160389 -7.3626151
-26.604008 -18.122692 -15.75059
-26.603607 -18.901937 -16.603632
-26.60261 -17.041258 -10.997923
-26.599533 -19.056524 -16.652607
-26.596199 -15.144035 -8.7405195
-26.595194 -16.564024 -10.762813
-26.592918 -17.577984 -11.440864
-26.591249 -17.936871 -13.323104
-26.591152 -13.975274 -6.397532
-26.591112 -17.710857 -12.120271
-26.587952 -16.1654 -4.788547
-26.587055 -17.608988 -11.741179
-26.58647 -20.489967 -17.10206
-26.581444 -18.071056 -12.659104
-26.577902 -16.678797 -4.2496772
-26.576523 -16.257589 -4.708189
-26.576307 -18.022039 -12.87619
-26.574957 -17.937042 -14.501294
-26.574484 -15.807652 -5.0279498
-26.574055 -18.083412 -15.565908
-26.573095 -15.75189 -9.6372213
-26.571512 -18.580894 -16.445509
-26.566147 -16.357603 -4.613975
-26.565311 -18.13261 -15.901967
-26.563686 -18.00699 -12.435225
-26.562298 -13.994413 -7.105525
-26.561491 -17.5455 -11.275846
-26.559767 -16.737814 -10.889662
-26.554155 -17.90888 -12.32701
-26.553522 -16.437975 -4.4939418
-26.553267 -18.780951 -16.547764
-26.551857 -18.013233 -15.122668
-26.549877 -20.390842 -16.972736
-26.549215 -16.539625 -4.3688598
-26.547018 -18.054213 -15.366656
-26.546648 -14.641904 -5.7683158
-26.545753 -17.835371 -12.227013
-26.54505 -15.065554 -5.4508672
-26.541714 -15.868029 -4.9614639
-26.537014 -15.645601 -5.117909
-26.535255 -14.131472 -6.1889968
-26.535196 -13.887102 -6.6507339
-26.534828 -17.853001 -13.664921
-26.53212 -13.91324 -6.8568521
-26.531853 -17.831833 -14.173372
-26.529209 -15.934796 -4.8970599
-26.529135 -17.648594 -11.562171
-26.525841 -17.937227 -14.690616
-26.523777 -17.959625 -13.134858
-26.522608 -17.94821 -14.892077
-26.520048 -19.823292 -16.79649
-26.519974 -14.413677 -5.942029
-26.518196 -17.692766 -11.674848
-26.517305 -17.113432 -10.997104
-26.51614 -16.272371 -4.5861621
-26.51594 -16.447941 -10.584062
-26.513983 -17.825258 -13.938037
-26.51363 -16.174284 -4.6663241
-26.510454 -15.999542 -4.841876
-26.50975 -16.069656 -4.7588258
-26.504881 -19.606346 -16.777924
-26.500175 -14.452065 -7.7127891
-26.499891 -17.727787 -11.859175
-26.498861 -15.943962 -9.8377094
-26.49494 -15.413853 -9.0760374
-26.493563 -17.642242 -11.340118
-26.491302 -18.392963 -16.329458
-26.491028 -15.652332 -9.377883
-26.489742 -18.022161 -12.732374
-26.489454 -15.011123 -8.4987993
-26.48781 -13.901612 -6.7319651
-26.487648 -20.133522 -16.856747
-26.4853 -17.466042 -11.144205
-26.484695 -13.953546 -6.9506021
-26.484262 -14.106158 -7.1989932
-26.483944 -17.79262 -11.998274
-26.482517 -17.859255 -13.405724
-26.480482 -18.319752 -16.240221
-26.479942 -19.131758 -16.69729
-26.479082 -17.848293 -14.380571
-26.477829 -15.263558 -5.3476539
-26.474066 -18.011969 -12.32491
-26.473829 -14.048795 -6.3049221
-26.472879 -19.348913 -16.742767
-26.470667 -14.872179 -8.2699366
-26.470078 -18.479965 -16.409981
-26.469326 -17.595589 -11.218042
-26.469254 -16.253263 -10.298924
-26.46731 -18.04788 -15.674814
-26.466341 -18.686817 -16.521545
-26.465263 -15.894217 -4.8727889
-26.463654 -20.482664 -17.002712
-26.462769 -18.227718 -16.151447
-26.461697 -16.391695 -10.475457
-26.460133 -13.94011 -6.4920111
-26.459661 -18.042704 -12.527241
-26.458876 -20.356602 -16.931787
-26.458309 -18.993933 -16.662458
-26.456179 -17.31946 -11.06262
-26.455639 -17.952002 -12.241991
-26.455282 -17.894968 -13.230984
-26.453518 -13.996689 -6.38515
-26.453154 -15.993378 -4.7162762
-26.45293 -17.74798 -11.470746
-26.452295 -16.559528 -10.673599
-26.451674 -18.044319 -12.393676
-26.449478 -17.739647 -11.74664
-26.448366 -14.677407 -7.9935889
-26.442482 -17.85453 -14.577826
-26.436068 -14.253732 -6.087522
-26.436007 -17.972744 -12.903075
-26.431416 -14.271514 -7.4089818
-26.429811 -15.728947 -5.0301142
-26.425444 -18.113138 -16.010571
-26.421507 -15.81746 -4.933166
-26.418182 -17.818901 -11.620156
-26.417591 -13.922202 -6.745121
-26.415354 -18.05405 -15.818844
-26.409782 -17.75808 -14.105969
-26.409061 -15.884771 -4.834156
-26.406721 -20.011265 -16.820629
-26.405222 -17.906342 -12.119205
-26.400553 -16.977661 -10.87921
-26.400417 -18.026522 -12.326727
-26.400394 -17.869009 -14.779252
-26.400028 -18.006971 -15.509077
-26.397272 -18.021763 -12.263336
-26.392366 -17.751762 -14.288256
-26.392115 -20.45236 -16.944132
-26.390776 -17.725584 -11.266422
-26.386728 -18.566376 -16.489935
-26.385246 -15.414964 -5.227993
-26.38286 -17.976347 -15.275842
-26.378113 -19.058084 -16.690847
-26.378042 -17.989561 -12.199121
-26.375898 -15.832122 -9.4590874
-26.373978 -14.04079 -6.9922991
-26.373915 -14.846882 -5.6198902
-26.368235 -15.853497 -4.7688432
-26.365088 -19.714005 -16.803734
-26.361717 -14.135839 -6.2080078
-26.35998 -16.746317 -10.779908
-26.359785 -15.890468 -9.6169024
-26.359715 -20.290014 -16.893618
-26.358923 -14.506254 -5.8806419
-26.357956 -18.831015 -16.613457
-26.357203 -17.81411 -11.354938
-26.356976 -17.476274 -11.082952
-26.356428 -14.644867 -5.7745709
-26.355419 -13.913339 -6.6309962
-26.354639 -18.028906 -12.366955
-26.35463 -17.908791 -15.024309
-26.353693 -17.762897 -14.48331
-26.353365 -14.35857 -5.9940548
-26.352814 -14.617949 -7.7731638
-26.350813 -17.905981 -13.056611
-26.348227 -17.774481 -13.747491
-26.346243 -18.042238 -12.289185
-26.344341 -17.595421 -11.135256
-26.343224 -16.15691 -9.9725285
-26.343073 -15.081189 -5.445591
-26.342571 -17.871742 -11.760801
-26.340059 -13.958589 -6.791842
-26.338543 -15.461143 -8.8606844
-26.335873 -15.601416 -9.1774492
-26.33429 -18.3827 -16.403658
-26.328829 -18.045425 -12.220663
-26.32645 -17.795296 -14.657721
-26.325182 -15.761984 -4.918129
-26.323433 -17.201717 -10.966759
-26.323198 -18.310068 -16.305861
-26.321535 -18.002556 -12.157246
-26.320004 -15.060719 -8.3606758
-26.319128 -14.026391 -6.326735
-26.319092 -18.461164 -16.471317
-26.317612 -17.722847 -11.178351
-26.314268 -19.874222 -16.816023
-26.313374 -15.149651 -8.4648371
-26.309864 -18.979834 -16.683781
-26.309471 -17.761566 -13.459734
-26.307775 -17.925751 -11.482611
-26.306356 -15.697344 -4.9975219
-26.305534 -18.222723 -16.221254
-26.304237 -14.200351 -7.1174059
-26.30341 -17.994053 -15.66284
-26.300735 -15.793116 -9.3192825
-26.297016 -17.743402 -13.978848
-26.296371 -15.281611 -8.584568
-26.295734 -17.82272 -13.212598
-26.295547 -17.956299 -11.622481
-26.291056 -15.72933 -4.86655
-26.290886 -14.536601 -7.5786991
-26.287754 -16.561007 -10.531877
-26.286274 -19.518469 -16.783873
-26.28602 -15.247456 -5.3356061
-26.282721 -17.842173 -11.246318
-26.282495 -17.959438 -15.546001
-26.281017 -17.97142 -12.63745
-26.277407 -18.025351 -12.076945
-26.276987 -18.042694 -12.273867
-26.272633 -17.95792 -11.933334
-26.269865 -15.54056 -5.0992961
-26.26907 -19.109211 -16.723774
-26.267977 -17.397646 -11.002345
-26.267662 -17.701385 -14.196494
-26.260334 -15.688 -4.947443
-26.257528 -20.541096 -16.948696
-26.257168 -18.009197 -15.76661
-26.256973 -18.130434 -16.122456
-26.256853 -16.679886 -10.654964
-26.254908 -18.054564 -12.169533
-26.252584 -15.353715 -5.2863922
-26.250711 -20.444073 -16.905325
-26.250477 -18.658035 -16.558788
-26.250225 -14.982034 -5.5381989
-26.249956 -14.270946 -6.086103
-26.243229 -14.416828 -5.9591022
-26.239876 -20.015099 -16.836687
-26.235973 -20.173901 -16.852533
-26.235426 -16.045603 -9.6684237
-26.233179 -17.914934 -15.200446
-26.23255 -16.945938 -10.761675
-26.232227 -17.696623 -14.406321
-26.231974 -17.933031 -15.40483
-26.230606 -18.016947 -12.393517
-26.229521 -14.424684 -7.2859602
-26.229174 -15.401649 -5.232049
-26.224867 -15.628322 -5.0044832
-26.22217 -17.809858 -14.845278
-26.222012 -18.014986 -15.864833
-26.221704 -13.983663 -6.456183
-26.218519 -16.454832 -10.34172
-26.212563 -15.898148 -9.4622164
-26.210472 -17.556847 -11.050776
-26.20953 -17.730295 -14.622054
-26.209116 -18.044334 -12.020448
-26.206944 -15.640738 -4.9461098
-26.206743 -17.876368 -12.82016
-26.201042 -17.705936 -11.082198
-26.198709 -17.833324 -13.005225
-26.198284 -17.932768 -15.563517
-26.193443 -14.127598 -6.1959519
-26.193174 -17.963409 -11.323486
-26.19243 -18.020267 -11.730007
-26.187624 -17.105751 -10.849681
-26.186642 -15.024486 -8.1498146
-26.183971 -17.75445 -13.815473
-26.181456 -17.882111 -11.243717
-26.180069 -17.854713 -15.056872
-26.179106 -17.83968 -11.150882
-26.178812 -18.525003 -16.516279
-26.176455 -18.066957 -12.100351
-26.176105 -15.577373 -4.8958268
-26.173809 -16.168116 -9.7831402
-26.173059 -18.021526 -11.446654
-26.172068 -18.035418 -12.220999
-26.170103 -15.224192 -8.3854389
-26.168858 -17.746191 -13.619929
-26.16798 -15.568022 -5.0077119
-26.16708 -14.183287 -6.8098369
-26.166779 -14.322655 -7.0470181
-26.166012 -14.615727 -5.8242669
-26.165405 -18.029247 -11.557328
-26.164921 -16.337307 -10.107592
-26.162188 -19.282667 -16.756971
-26.161734 -14.802407 -7.8117089
-26.160046 -14.006436 -6.595746
-26.155104 -19.910721 -16.827982
-26.153986 -18.309023 -16.37068
-26.150696 -14.871541 -5.6178069
-26.149677 -16.835934 -10.651113
-26.149628 -17.300392 -10.897298
-26.147518 -19.705595 -16.813711
-26.140022 -15.086496 -5.4633212
-26.138142 -18.031149 -15.999545
-26.136982 -17.900661 -12.633059
-26.134298 -17.66993 -14.114488
-26.133129 -17.718721 -13.962839
-26.132996 -14.396554 -5.9990549
-26.132261 -20.364641 -16.878778
-26.132174 -15.28245 -5.3251872
-26.131578 -18.146193 -16.187294
-26.131329 -18.402283 -16.455349
-26.125807 -15.37688 -5.199244
-26.123865 -16.257565 -9.8701735
-26.123753 -14.053817 -6.2932348
-26.114822 -20.554726 -16.897247
-26.111963 -18.069666 -11.473928
-26.111488 -17.782066 -13.07274
-26.109993 -17.735851 -13.225533
-26.109539 -18.741026 -16.621586
-26.108173 -18.072216 -11.999237
-26.108072 -18.209826 -16.282667
-26.105457 -15.484902 -8.6383772
-26.100985 -17.95529 -11.188239
-26.09989 -15.814383 -9.2578602
-26.098934 -16.71471 -10.561057
-26.098415 -17.932875 -15.669776
-26.098278 -18.901081 -16.687826
-26.096216 -17.982759 -12.282411
-26.094238 -17.892303 -15.467103
-26.092131 -17.474266 -10.949242
-26.092001 -15.745447 -8.983243
-26.087624 -18.129745 -11.65498
-26.085783 -14.266872 -6.1077571
-26.081568 -17.795368 -11.058667
-26.080555 -15.431752 -5.0860472
-26.079634 -18.06237 -11.395563
-26.079374 -17.786564 -14.999948
-26.078743 -17.847176 -15.235209
-26.074745 -20.490704 -16.881672
-26.074602 -17.654575 -14.325077
-26.065453 -14.69118 -7.4825878
-26.063507 -17.751637 -13.717753
-26.063271 -14.139417 -6.1888342
-26.059723 -15.979444 -9.4218903
-26.058876 -15.361734 -4.9734812
-26.058651 -15.403247 -8.4731169
-26.053204 -20.051828 -16.82827
-26.052162 -17.92877 -12.455102
-26.051718 -17.88751 -11.103028
-26.048944 -16.817059 -10.560227
-26.048004 -17.727837 -14.807428
-26.047993 -17.67815 -14.562062
-26.0476 -20.648745 -16.94083
-26.042948 -17.0228 -10.692213
-26.040985 -18.140226 -11.500807
-26.040285 -14.512694 -7.168467
-26.040232 -18.025549 -12.146121
-26.037647 -17.205803 -10.789305
-26.03438 -17.666735 -10.960506
-26.032997 -17.706497 -13.398794
-26.032446 -18.041903 -11.262195
-26.031145 -14.352813 -6.935215
-26.02998 -15.281912 -5.2663579
-26.026304 -15.343094 -5.1997209
-26.025984 -19.433895 -16.792366
-26.025471 -15.632271 -8.7437649
-26.025152 -18.059628 -16.100719
-26.024656 -15.173728 -5.406764
-26.019091 -18.128799 -11.828716
-26.018578 -16.899315 -10.570176
-26.017 -14.774993 -5.7176008
-26.01302 -17.715984 -13.870134
-26.011744 -17.840366 -12.643738
-26.003256 -17.776001 -12.862698
-26.00285 -15.230799 -5.3498349
-25.996599 -19.072607 -16.733797
-25.99655 -16.633215 -10.411633
-25.99589 -18.249962 -16.348471
-25.995428 -14.043407 -6.3947349
-25.990301 -14.11122 -6.2445779
-25.989891 -16.168222 -9.5593462
-25.989351 -17.950001 -15.844778
-25.988529 -17.367331 -10.817846
-25.987213 -18.591774 -16.592617
-25.98513 -18.317257 -16.405993
-25.983845 -17.951975 -12.263389
-25.981787 -15.31936 -5.1660671
-25.976738 -19.855249 -16.814445
-25.973738 -17.657236 -14.04482
-25.972033 -18.461454 -16.519669
-25.970739 -17.727362 -13.581486
-25.96932 -17.519815 -10.864796
-25.968508 -17.628061 -14.215974
-25.967766 -14.929161 -5.5905089
-25.967749 -15.303397 -5.101007
-25.964661 -17.831583 -11.007287
-25.963102 -14.169577 -6.5511222
-25.961803 -20.592417 -16.856733
-25.95756 -18.125334 -11.361725
-25.956671 -17.9718 -11.12163
-25.956171 -15.268761 -5.2345681
-25.954576 -14.237926 -6.1421819
-25.954502 -15.077926 -5.4801488
-25.952827 -20.276106 -16.830145
-25.952211 -14.447608 -5.988194
-25.945913 -18.174112 -11.633461
-25.942528 -17.630178 -14.332554
-25.941814 -16.811905 -10.485847
-25.940828 -14.959528 -7.6874838
-25.939505 -20.471174 -16.85148
-25.939409 -18.095055 -16.202122
-25.939068 -14.65968 -5.8293929
-25.937742 -18.381372 -16.458986
-25.935436 -17.716867 -13.031258
-25.934891 -15.214586 -5.308938
-25.934237 -19.22389 -16.759836
-25.93281 -19.983927 -16.81296
-25.929634 -14.719659 -7.3279319
-25.923363 -16.512524 -10.157966
-25.916611 -16.367775 -9.8442535
-25.915646 -15.982533 -9.1386166
-25.910769 -17.808332 -15.424728
-25.910418 -17.6017 -10.818455
-25.906424 -15.153154 -5.4005408
-25.905416 -15.25538 -5.183846
-25.904058 -15.34789 -8.245656
-25.901583 -17.952534 -12.168138
-25.899927 -17.730234 -15.075424
-25.898317 -15.125772 -7.9410391
-25.894371 -18.081509 -11.225981
-25.893497 -18.011116 -12.01075
-25.893391 -17.953859 -15.974911
-25.893167 -17.739183 -13.734317
-25.892302 -16.982363 -10.53113
-25.887785 -17.657904 -13.952199
-25.883488 -17.666563 -13.178972
-25.882002 -18.726597 -16.670168
-25.881466 -15.206896 -5.124783
-25.876318 -15.203564 -5.258883
-25.874063 -17.861561 -12.503505
-25.872969 -18.25145 -16.373491
-25.870527 -14.79174 -5.7310748
-25.86726 -17.633286 -14.483755
-25.866611 -17.721617 -10.86641
-25.865164 -19.588696 -16.807829
-25.863087 -18.197432 -11.47383
-25.862425 -14.506968 -6.9880428
-25.861298 -14.66377 -7.17625
-25.860119 -17.715147 -13.631841
-25.859653 -17.704084 -13.871406
-25.858419 -18.166929 -16.301371
-25.85828 -14.374802 -6.7147651
-25.857597 -17.448605 -10.757858
-25.855625 -15.00465 -5.5475039
-25.855371 -15.57395 -8.4916258
-25.851181 -14.177183 -6.2352118
-25.850546 -17.205448 -10.652252
-25.850389 -17.870037 -15.66573
-25.844582 -17.649012 -14.77038
-25.843348 -17.893639 -12.320825
-25.843132 -18.139479 -11.721474
-25.840834 -19.915628 -16.807289
-25.839964 -15.089203 -5.4955068
-25.836885 -15.159385 -5.3375459
-25.836754 -14.918619 -7.4890699
-25.83629 -20.072321 -16.803331
-25.836195 -17.643488 -13.285806
-25.836082 -17.668814 -13.42381
-25.829969 -17.614082 -14.329762
-25.826942 -14.711685 -5.8178549
-25.82361 -18.303612 -16.43845
-25.823254 -18.006371 -11.115243
-25.822903 -15.194986 -5.202208
-25.821821 -18.164276 -11.316607
-25.816845 -17.696632 -13.551385
-25.815128 -20.595476 -16.809612
-25.814779 -18.483322 -16.579165
-25.811108 -18.882868 -16.73424
-25.809532 -14.622029 -5.8985829
-25.808762 -17.617332 -14.050279
-25.805258 -16.742069 -10.399504
-25.804766 -17.624479 -14.186392
-25.803055 -14.342528 -6.112998
-25.801725 -17.853966 -10.994007
-25.800875 -19.769651 -16.800915
-25.796461 -18.388975 -16.512344
-25.794405 -17.573954 -10.730127
-25.791916 -15.163657 -5.2770982
-25.790579 -18.189201 -11.609313
-25.790155 -14.916182 -5.6586552
-25.78957 -17.986242 -16.089596
-25.784704 -17.760931 -12.635282
-25.778393 -20.742538 -16.824604
-25.773359 -15.822491 -8.7210007
-25.773079 -14.829524 -7.3113761
-25.770632 -18.069843 -11.203406
-25.766689 -17.873552 -15.81798
-25.766365 -16.890039 -10.421334
-25.764753 -15.126106 -5.2244358
-25.763906 -14.758993 -7.1977959
-25.763874 -19.064341 -16.766853
-25.763018 -14.142641 -6.4017348
-25.761719 -16.657482 -10.26961
-25.755413 -17.681505 -12.830964
-25.754686 -19.294472 -16.783922
-25.752926 -14.508544 -6.0060301
-25.748964 -18.050911 -11.842173
-25.748135 -16.293364 -9.5000372
-25.746851 -17.904371 -12.155898
-25.745758 -15.140766 -5.34411
-25.745264 -15.113138 -5.439889
-25.744362 -16.505053 -9.9214268
-25.742292 -17.046028 -10.470288
-25.741135 -17.64336 -13.961905
-25.736465 -14.286833 -6.514349
-25.735565 -17.622736 -13.176956
-25.733204 -17.635803 -13.102547
-25.730875 -15.123765 -5.2860012
-25.729805 -20.258511 -16.78055
-25.72934 -17.65066 -13.001199
-25.728987 -15.166789 -7.700593
-25.728508 -18.215107 -16.380129
-25.727573 -18.574793 -16.639002
-25.727535 -18.173435 -11.511514
-25.726782 -16.140909 -9.204072
-25.726328 -17.395771 -10.628019
-25.725588 -15.033282 -5.576498
-25.725368 -17.832695 -12.456182
-25.725338 -17.626799 -14.446769
-25.722307 -17.624557 -14.526858
-25.721479 -20.478603 -16.765844
-25.719831 -17.632835 -14.631765
-25.718811 -17.784773 -15.513666
-25.717125 -18.179749 -11.402642
-25.715782 -14.718601 -7.0746889
-25.714262 -17.702898 -13.828921
-25.714048 -18.050934 -16.203695
-25.71014 -17.699568 -10.773688
-25.709473 -17.685667 -15.003867
-25.707062 -15.53666 -8.2513933
-25.705669 -17.958704 -11.076216
-25.700495 -18.117632 -11.700328
-25.693897 -18.134409 -11.276884
-25.693098 -14.636268 -5.93294
-25.692253 -17.696848 -13.658489
-25.690184 -15.104625 -5.378757
-25.688931 -15.113077 -5.3285542
-25.68734 -14.771129 -5.8235431
-25.681305 -15.096774 -5.2863498
-25.680693 -17.539515 -10.641177
-25.67977 -17.812603 -15.660393
-25.678251 -16.427166 -9.6716967
-25.674242 -19.611797 -16.807766
-25.674109 -18.066301 -11.171307
-25.673325 -14.310273 -6.2341561
-25.67144 -14.446011 -6.109024
-25.671406 -19.443602 -16.8039
-25.667011 -16.609837 -10.06661
-25.665577 -20.669357 -16.747496
-25.665485 -18.129782 -16.297218
-25.66548 -20.096399 -16.790707
-25.664574 -14.865673 -7.2145338
-25.664352 -16.015911 -8.8911428
-25.662264 -17.919909 -12.005995
-25.660154 -17.723686 -15.26609
-25.657106 -17.832067 -10.900264
-25.654587 -17.872675 -15.933631
-25.65296 -18.296303 -16.473406
-25.648102 -17.640268 -13.4591
-25.647257 -17.812422 -12.308282
-25.646 -16.781879 -10.323539
-25.645355 -18.165659 -11.594004
-25.643805 -15.094895 -5.313869
-25.639011 -15.105662 -5.3584442
-25.63616 -17.60285 -14.358648
-25.633911 -19.853586 -16.790609
-25.624035 -14.94405 -5.704381
-25.620478 -16.359297 -9.4614458
-25.618973 -17.583265 -13.251366
-25.615852 -14.685855 -5.9293318
-25.615051 -17.199888 -10.470331
-25.613625 -18.429708 -16.576832
-25.611135 -18.170313 -11.472255
-25.60684 -17.990997 -11.10878
-25.604431 -18.719969 -16.702059
-25.60371 -15.069384 -5.5339799
-25.599039 -15.098491 -5.4272509
-25.598993 -18.148514 -11.34899
-25.597651 -17.410597 -10.540519
-25.597141 -15.436071 -7.9567709
-25.597132 -14.645658 -6.804347
-25.596527 -17.894461 -10.987692
-25.595873 -18.056845 -11.769457
-25.59561 -16.971981 -10.343717
-25.594469 -14.583689 -6.0140252
-25.593884 -17.655577 -14.839336
-25.593636 -17.719547 -12.480277
-25.592802 -17.714746 -10.763591
-25.592451 -17.590067 -14.153831
-25.591391 -20.795835 -16.724651
-25.589426 -20.369095 -16.749636
-25.583929 -15.019176 -5.626204
-25.582317 -15.07746 -5.3416972
-25.581589 -18.904039 -16.75429
-25.580811 -19.466036 -16.80534
-25.580675 -18.079863 -11.224404
-25.574774 -17.588453 -13.038881
-25.574749 -17.579842 -10.613269
-25.573803 -14.29789 -6.4004469
-25.573547 -17.66828 -15.069927
-25.571688 -17.637383 -12.647583
-25.569756 -17.614594 -14.577355
-25.567598 -19.086632 -16.772047
-25.564734 -20.210844 -16.759745
-25.563904 -15.096578 -7.4068398
-25.562027 -17.816307 -15.734578
-25.554983 -20.628345 -16.701157
-25.554752 -16.7052 -10.178164
-25.552376 -20.903364 -16.750935
-25.551399 -15.71332 -8.2952938
-25.547752 -14.381532 -6.283308
-25.545931 -17.783199 -10.853526
-25.541332 -17.919201 -11.050093
-25.537979 -17.646563 -13.560115
-25.537849 -18.127243 -11.683805
-25.536045 -20.040859 -16.775904
-25.535572 -17.639338 -13.975669
-25.534855 -16.270735 -9.2017984
-25.530752 -17.81431 -12.174558
-25.529905 -18.185949 -16.363064
-25.529093 -15.307775 -7.6608238
-25.525862 -17.696953 -13.820817
-25.524477 -16.11418 -8.9221067
-25.520638 -17.56332 -12.811911
-25.519417 -17.57382 -13.33842
-25.518538 -14.477338 -6.1647029
-25.517691 -17.941416 -16.051233
-25.51545 -18.05615 -16.223328
-25.513214 -17.751192 -15.482176
-25.51263 -18.097864 -11.308378
-25.512613 -14.617184 -6.647285
-25.511837 -17.989748 -11.13362
-25.50902 -17.430504 -10.506207
-25.506147 -17.829983 -10.958587
-25.504049 -16.576275 -9.7750101
-25.503477 -17.715046 -15.303391
-25.501484 -17.313288 -10.438936
-25.501389 -19.546686 -16.79896
-25.500761 -14.507966 -6.5327368
-25.50036 -18.572193 -16.638716
-25.500359 -19.284294 -16.789585
-25.49979 -17.943165 -11.897166
-25.498199 -17.68714 -15.189649
-25.496801 -20.754831 -16.681705
-25.492975 -18.15469 -11.563445
-25.492449 -18.131622 -11.417549
-25.489542 -17.589638 -14.466626
-25.489412 -14.738351 -5.9551988
-25.488792 -15.050984 -5.6174011
-25.487444 -16.42119 -9.4427366
-25.486874 -17.857117 -12.04237
-25.484545 -16.83494 -10.224592
-25.48134 -17.208397 -10.369219
-25.479849 -16.659716 -10.012506
-25.479256 -18.041895 -11.228393
-25.478415 -17.656305 -10.715013
-25.474979 -17.095394 -10.31951
-25.469553 -14.88623 -5.8352418
-25.468464 -17.695938 -12.346536
-25.466913 -15.066578 -5.404398
-25.466896 -14.921427 -7.0716362
-25.462616 -14.999913 -5.717957
-25.462101 -15.093925 -5.5350552
-25.461496 -17.876541 -11.058296
-25.459581 -20.521255 -16.686113
-25.458828 -18.320982 -16.491373
-25.45789 -18.058609 -11.783216
-25.451586 -19.095758 -16.763105
-25.445381 -17.681538 -13.686342
-25.445347 -14.623253 -6.0616288
-25.444445 -17.712765 -10.854472
-25.435534 -17.564846 -14.377812
-25.434772 -20.885626 -16.662899
-25.434519 -20.330267 -16.712414
-25.434141 -17.57123 -13.421802
-25.432924 -17.655819 -15.035535
-25.431259 -17.766941 -10.976162
-25.430801 -16.968147 -10.233409
-25.429895 -19.69879 -16.778864
-25.422991 -17.600742 -12.499231
-25.416126 -17.600248 -14.114024
-25.415956 -14.433521 -6.3234391
-25.413746 -17.47827 -10.588738
-25.409904 -19.88685 -16.772446
-25.408352 -18.805233 -16.722919
-25.407169 -17.258223 -10.351199
-25.405975 -17.167139 -10.295727
-25.405235 -18.972059 -16.751608
-25.40486 -17.931906 -11.183512
-25.403578 -18.027422 -11.32935
-25.403103 -17.626284 -13.55474
-25.402199 -18.678688 -16.688828
-25.401831 -17.370491 -10.436803
-25.394527 -17.834955 -15.806479
-25.393097 -17.773581 -12.12477
-25.39292 -17.547327 -12.633482
-25.390869 -20.697634 -16.640352
-25.385736 -18.460972 -16.591795
-25.385719 -17.771118 -15.617202
-25.383062 -17.548344 -10.774753
-25.382631 -15.985498 -8.5057278
-25.380348 -20.118698 -16.732994
-25.378103 -14.715675 -6.6277342
-25.376972 -18.098825 -16.275194
-25.373859 -16.887045 -10.153461
-25.373096 -17.5221 -13.047839
-25.37261 -17.678127 -13.947811
-25.371925 -19.107368 -16.76527
-25.370487 -19.393896 -16.783739
-25.369299 -17.690586 -15.243548
-25.362429 -17.792484 -11.075649
-25.361235 -17.641151 -14.05536
-25.359541 -18.052418 -11.490633
-25.354372 -19.53874 -16.78068
-25.348434 -16.185379 -8.8252974
-25.347561 -17.609541 -14.821326
-25.345373 -14.722091 -6.0551109
-25.344418 -16.691175 -9.8759508
-25.343271 -17.573992 -14.268064
-25.339636 -16.768831 -10.056466
-25.33786 -18.076473 -11.679879
-25.337816 -17.647499 -10.947768
-25.336859 -17.714993 -13.833789
-25.336317 -17.07247 -10.204061
-25.33535 -17.496662 -12.873386
-25.333698 -14.852612 -6.8109121
-25.333605 -15.830714 -8.1945124
-25.333134 -17.515818 -13.204556
-25.333008 -17.578665 -14.578015
-25.331409 -17.908781 -11.292806
-25.329702 -14.615965 -6.171309
-25.329174 -17.674398 -12.249339
-25.327505 -17.80876 -12.016587
-25.326109 -17.892008 -11.930279
-25.324747 -16.966406 -10.145429
-25.322519 -21.029902 -16.668369
-25.321808 -20.834948 -16.608801
-25.317986 -17.819284 -11.207395
-25.314075 -18.233759 -16.368462
-25.313929 -17.594469 -12.389989
-25.311476 -17.97875 -11.850342
-25.307806 -17.188177 -10.267373
-25.307449 -15.056213 -5.6771669
-25.304285 -18.607664 -16.641645
-25.303251 -17.940346 -11.407933
-25.300627 -15.687464 -7.9505401
-25.295441 -17.347752 -10.506197
-25.295341 -16.523283 -9.4297533
-25.29517 -17.278864 -10.372593
-25.294947 -19.227432 -16.763901
-25.289644 -20.953091 -16.597237
-25.289591 -15.059048 -5.503871
-25.288866 -17.655043 -13.617665
-25.288706 -17.488062 -10.866653
-25.287142 -16.907478 -10.073048
-25.283358 -20.276241 -16.687855
-25.280277 -20.75827 -16.592545
-25.278694 -17.347364 -10.711592
-25.278168 -17.726347 -15.422001
-25.277521 -14.849595 -5.986114
-25.277235 -18.007147 -16.09725
-25.277208 -18.889492 -16.72673
-25.276773 -14.980976 -5.8341699
-25.274851 -15.455314 -7.5487161
-25.274588 -17.714437 -12.14603
-25.269894 -17.641787 -15.047264
-25.269032 -17.495104 -12.700267
-25.268892 -20.439928 -16.64501
-25.263651 -18.388132 -16.495836
-25.260977 -17.915922 -15.898367
-25.260921 -16.357792 -9.0579824
-25.259939 -17.714199 -13.746778
-25.259813 -19.660563 -16.762941
-25.257317 -17.613539 -14.18014
-25.252178 -19.041019 -16.744549
-25.251554 -15.227398 -7.2114329
-25.249622 -17.553562 -13.468453
-25.248365 -16.657217 -9.6620693
-25.248283 -17.505402 -13.327164
-25.238634 -19.410404 -16.764017
-25.237835 -14.764792 -6.107408
-25.237226 -18.768795 -16.677473
-25.236988 -17.784918 -11.347836
-25.232616 -17.685137 -11.138891
-25.23259 -17.559914 -14.462774
-25.231813 -17.50226 -12.518952
-25.221302 -18.133175 -16.22892
-25.221014 -17.712757 -13.95594
-25.216801 -17.279552 -10.560987
-25.216562 -19.908678 -16.740973
-25.214199 -15.031974 -5.7839789
-25.212238 -14.572015 -6.3203759
-25.205173 -17.53956 -11.009234
-25.204395 -17.446306 -12.913637
-25.202812 -17.466135 -13.01984
-25.202351 -17.681818 -14.083227
-25.198936 -17.226084 -10.456396
-25.197327 -18.528656 -16.594698
-25.197157 -21.036953 -16.55949
-25.196112 -20.661173 -16.584223
-25.191002 -20.81629 -16.55587
-25.187197 -17.011927 -10.052589
-25.186901 -17.622641 -12.21494
-25.186031 -17.175295 -10.316801
-25.184422 -16.900797 -9.9495974
-25.184322 -17.769352 -15.572137
-25.184235 -17.398251 -10.917287
-25.175676 -18.211399 -16.308704
-25.175634 -17.843735 -15.730973
-25.174128 -17.584955 -14.744661
-25.171452 -17.09536 -10.183315
-25.170284 -17.892803 -11.554694
-25.168653 -20.130287 -16.68784
-25.166889 -14.725525 -6.4526768
-25.15642 -14.703075 -6.1917419
-25.154547 -15.071896 -6.9150028
-25.152109 -17.69639 -13.682352
-25.151663 -20.94565 -16.529156
-25.151035 -17.543419 -12.350841
-25.147465 -17.618696 -13.562797
-25.146818 -15.07435 -5.6549811
-25.145874 -17.69165 -12.097808
-25.144711 -17.647675 -15.195354
-25.144133 -16.791458 -9.7904749
-25.14374 -17.574471 -14.624241
-25.141396 -17.749655 -13.881402
-25.14098 -17.57365 -14.351786
-25.140024 -17.849091 -11.959486
-25.137157 -15.060886 -5.7670932
-25.135788 -15.01154 -5.84027
-25.134546 -21.140581 -16.559978
-25.134447 -17.482094 -13.192314
-25.130812 -18.94521 -16.70442
-25.129313 -20.322206 -16.633831
-25.126656 -15.869862 -8.0670929
-25.125656 -17.756519 -13.77714
-25.123634 -16.498617 -9.1809397
-25.123514 -18.678059 -16.64329
-25.120676 -17.556509 -11.148952
-25.117714 -17.954426 -15.921643
-25.113869 -16.008926 -8.2651587
-25.112236 -17.268522 -10.827435
-25.110588 -17.602257 -14.9439
-25.108835 -18.335346 -16.373058
-25.104208 -16.610834 -9.4130669
-25.104187 -17.714149 -15.368844
-25.10276 -17.437769 -12.766576
-25.101866 -17.620003 -11.297763
-25.101797 -19.478485 -16.725302
-25.100691 -17.460472 -12.62068
-25.09915 -15.407523 -7.2676668
-25.097195 -17.550331 -13.449187
-25.094877 -14.840373 -6.1061049
-25.09411 -17.690811 -11.45929
-25.092031 -14.9316 -6.6095142
-25.09017 -17.449362 -13.054525
-25.088879 -17.073936 -10.276565
-25.087973 -17.172691 -10.608792
-25.087784 -16.978073 -9.9110231
-25.086262 -19.204876 -16.71891
-25.08596 -18.079533 -16.096296
-25.08275 -19.699636 -16.719965
-25.081644 -18.485697 -16.504139
-25.078596 -17.452047 -11.079024
-25.07357 -17.962667 -11.787013
-25.071154 -17.092463 -10.403936
-25.066658 -20.490965 -16.565725
-25.066525 -16.694181 -9.599124
-25.065357 -21.08358 -16.475679
-25.065023 -17.640341 -14.245404
-25.064747 -14.954624 -5.953815
-25.062868 -17.689165 -14.14732
-25.055588 -17.013979 -10.093472
-25.05249 -18.015167 -15.982271
-25.042795 -17.490599 -13.289105
-25.039175 -15.082967 -5.6567941
-25.037994 -16.182201 -8.4830542
-25.037256 -17.592432 -12.235394
-25.036234 -18.830919 -16.669888
-25.035662 -17.413519 -12.897116
-25.0331 -16.920523 -9.8103151
-25.026081 -17.837191 -11.665964
-25.025244 -17.468496 -12.497555
-25.024921 -17.358315 -10.993346
-25.021221 -17.679979 -13.623464
-25.019552 -18.614779 -16.590944
-25.019314 -17.566805 -14.568694
-25.018648 -17.739008 -14.064429
-25.018103 -16.998497 -10.194283
-25.017366 -17.75036 -13.739217
-25.014606 -18.204466 -16.195553
-25.014069 -17.604427 -13.501684
-25.012169 -17.881853 -15.765643
-25.009348 -15.091992 -5.761014
-25.007643 -15.049351 -5.8620362
-25.006762 -17.792683 -13.84951
-25.006214 -17.897108 -11.921779
-25.001932 -17.593979 -14.774786
-24.999186 -15.743058 -7.660737
-24.998129 -21.204506 -16.451645
-24.997095 -17.489256 -11.242538
-24.996128 -19.919275 -16.670605
-24.995464 -21.005762 -16.442081
-24.992468 -17.205542 -10.77679
-24.99087 -20.853228 -16.474802
-24.986485 -19.544077 -16.691288
-24.984762 -17.561544 -13.384624
-24.98464 -15.314675 -7.0476828
-24.9844 -17.63228 -15.077403
-24.98217 -14.756952 -6.2685051
-24.981371 -20.189667 -16.615341
-24.981056 -17.801737 -15.58749
-24.980347 -20.362329 -16.563843
-24.978266 -16.794268 -9.6021175
-24.977684 -16.941198 -9.9940348
-24.973383 -16.985254 -10.30329
-24.970427 -17.776661 -13.954362
-24.967838 -17.038109 -10.489494
-24.965857 -16.410599 -8.8556414
-24.965666 -19.38365 -16.68368
-24.964582 -17.740238 -15.408297
-24.962641 -15.119251 -5.7142448
-24.961952 -17.68091 -15.229782
-24.952642 -16.573408 -9.1560564
-24.952263 -15.098887 -5.6579738
-24.950575 -17.430948 -13.100382
-24.950409 -17.594957 -14.426531
-24.948011 -17.688557 -11.596992
-24.946371 -15.879393 -7.8584361
-24.946278 -18.753471 -16.619932
-24.944611 -16.918489 -9.8755293
-24.943056 -17.50602 -12.366662
-24.940983 -17.416979 -12.634071
-24.937872 -19.680792 -16.672659
-24.937651 -16.889263 -9.6705465
-24.936607 -17.707253 -14.22783
-24.936275 -17.834387 -11.995194
-24.935383 -17.515846 -11.441023
-24.933931 -19.009171 -16.663034
-24.93384 -16.984873 -10.398638
-24.933544 -17.610233 -14.946785
-24.929714 -17.272617 -10.910641
-24.928415 -18.474623 -16.415867
-24.926472 -17.700718 -12.113731
-24.924164 -16.001202 -8.0462208
-24.920771 -16.915098 -10.110305
-24.915928 -16.715876 -9.4009018
-24.91464 -17.394129 -11.157179
-24.913963 -17.962631 -15.838302
-24.910969 -18.587109 -16.512234
