# .PCD v0.7 - Point Cloud Data file format
VERSION 0.7
FIELDS x y z
SIZE 4 4 4
TYPE F F F
COUNT 1 1 1
WIDTH 1641
HEIGHT 1
VIEWPOINT 0 0 0 1 0 0 0
POINTS 1641
DATA ascii
11.7846 -89.635002 -48.005402
15.2176 -89.495003 -47.995998
15.5906 -89.682602 -48.0774
15.8808 -89.943604 -47.845402
11.4468 -90.234596 -48.014198
16.082001 -90.285599 -47.931198
11.3592 -90.741997 -48.006802
16.180401 -90.667801 -48.163799
11.3322 -91.288002 -47.982601
16.528601 -91.244598 -48.027199
11.3096 -91.8564 -47.833599
16.8706 -91.811401 -47.922401
11.3876 -92.543999 -47.818401
17.177799 -92.341202 -47.992802
11.6842 -93.499199 -47.717999
18.301399 -93.588997 -48.094799
11.959 -94.165001 -48.0816
18.8708 -94.235199 -48.0354
12.2052 -94.738998 -47.835201
19.2048 -94.748199 -48.141399
12.2798 -95.2556 -47.972599
19.489799 -95.160004 -47.755798
12.3426 -95.759003 -47.999001
19.8078 -95.644203 -47.9674
12.5006 -96.237198 -48.012798
20.306999 -96.197197 -47.667599
12.6976 -96.581802 -48.0714
12.8578 -96.9114 -47.925598
20.617599 -96.586197 -47.938
20.703199 -96.814201 -48.238998
20.8274 -96.920403 -47.8508
13.158 -97.342598 -48.069801
20.9744 -97.369797 -48.027199
13.5998 -97.981003 -47.969002
21.2316 -98.120598 -48.041599
14.0572 -98.623398 -48.019199
21.437799 -98.751999 -47.827999
14.4928 -99.376801 -47.891201
21.242201 -99.327202 -48.306599
21.393801 -99.261002 -47.962601
21.347401 -99.858597 -48.063801
14.9626 -100.2832 -47.892601
21.3034 -100.4014 -48.201199
21.524599 -100.3488 -47.913601
21.326401 -100.832 -48.122799
21.5082 -100.6804 -47.976002
15.6356 -101.0734 -47.903198
21.131599 -101.2452 -48.048599
21.563999 -101.1616 -47.658401
16.1584 -101.4302 -47.931599
16.677601 -101.6516 -48.111801
20.7432 -101.7342 -47.9496
17.202999 -102.1928 -47.768002
17.785801 -102.271 -48.102001
18.235399 -102.2026 -48.3424
19.677799 -102.3342 -47.978199
20.2402 -102.107 -47.955799
18.3606 -102.5456 -47.896599
19.0376 -102.5284 -47.879002
13.3056 -89.370201 -47.502602
13.6702 -89.203796 -47.6008
14.1886 -89.316002 -47.545601
12.9426 -89.693398 -47.4748
13.0792 -89.591202 -47.4114
14.6416 -89.488197 -47.445202
15.0278 -89.623802 -47.472198
15.5546 -89.800797 -47.548199
15.8934 -90.1828 -47.291401
11.783 -90.108002 -47.548599
12.3842 -89.875198 -47.491798
12.7596 -89.821602 -47.4188
16.097401 -90.311203 -47.555801
11.4272 -90.749802 -47.493401
16.3176 -90.815399 -47.596802
11.339 -91.185799 -47.550999
16.614799 -91.364998 -47.578999
11.3158 -91.772797 -47.344398
16.7908 -91.759399 -47.322399
11.3266 -92.241997 -47.406799
17.0916 -92.236 -47.445202
17.455 -92.723396 -47.513802
18.101801 -93.346397 -47.4538
18.7784 -94.074997 -47.539799
12.0326 -94.224197 -47.505402
12.2566 -94.760597 -47.334999
19.155001 -94.620796 -47.6936
12.319 -95.237198 -47.475399
12.3484 -95.736603 -47.502399
19.875999 -95.659599 -47.4286
19.601601 -95.235397 -47.358799
12.4602 -96.233597 -47.508202
12.6942 -96.738197 -47.559399
20.813999 -96.801201 -47.398602
12.9638 -97.260399 -47.5252
20.983601 -97.187202 -47.581001
13.2342 -97.661003 -47.6068
21.1908 -97.6772 -47.517399
13.5236 -98.058998 -47.495399
13.7534 -98.266602 -47.744202
21.4226 -98.325401 -47.4128
13.8568 -98.426003 -47.556801
14.2232 -98.850601 -47.5014
21.585199 -98.861397 -47.391602
14.5168 -99.261002 -47.430199
21.5828 -99.262604 -47.5154
14.6894 -99.697998 -47.2878
21.530399 -99.669998 -47.641998
21.6588 -100.2002 -47.559799
21.6574 -100.6514 -47.735199
21.7728 -100.7252 -47.424999
15.2212 -100.7668 -47.446201
15.5242 -101.206 -47.3284
15.9296 -101.494 -47.500801
16.325199 -101.6502 -47.625
16.6546 -101.9174 -47.5392
21.212999 -101.8112 -47.525002
16.841 -102.295 -47.119598
20.690599 -102.3024 -47.408401
17.3372 -102.5196 -47.360001
17.8412 -102.7186 -47.4688
18.6978 -102.7582 -47.5928
19.564199 -102.7026 -47.506001
20.0896 -102.5616 -47.486401
18.438 -102.9554 -47.330399
13.7146 -89.600403 -47.0578
12.9324 -89.821198 -47.164001
13.1974 -89.715599 -47.028198
14.5756 -89.875999 -46.782398
11.8362 -90.337997 -46.838402
12.2604 -90.087799 -47.017799
12.626 -89.973801 -47.1208
15.245 -89.933601 -47.0742
15.606 -90.140198 -47.0144
11.5248 -90.754601 -46.971401
16.144199 -90.712196 -47.090401
11.3414 -91.453003 -46.838402
16.464399 -91.315002 -47.082001
16.688801 -91.737198 -46.960602
11.3688 -92.335403 -46.987801
16.990999 -92.1782 -46.6838
11.4556 -92.748596 -47.021599
17.373199 -92.6922 -46.978401
11.6274 -93.325798 -47.055599
17.750601 -93.058998 -47.083599
18.2304 -93.435997 -46.861599
11.8566 -93.872597 -47.111599
18.7404 -93.901398 -47.0144
12.1022 -94.387604 -46.9958
12.2716 -94.844002 -46.914001
19.305799 -94.683403 -47.164001
12.3378 -95.165001 -47.059799
19.797199 -95.314201 -46.971802
12.4084 -95.685402 -46.9482
20.006399 -95.708603 -47.048801
12.4808 -96.152 -47.084202
20.277201 -96.010002 -47.0042
12.6974 -96.6912 -46.943001
20.791 -96.6036 -46.667599
20.9774 -96.955002 -46.9338
12.9694 -97.284798 -47.020599
21.0872 -97.262604 -47.1474
13.2586 -97.762604 -47.179199
21.309601 -97.833603 -46.931801
13.7752 -98.357201 -47.171799
21.4928 -98.4282 -46.892399
14.3322 -99.034798 -46.980999
21.6024 -98.772003 -47.0494
21.802601 -99.349403 -46.974201
21.7306 -99.759399 -47.253601
21.898199 -99.793602 -46.9646
14.9466 -100.3326 -46.955799
21.913601 -100.283 -47.0434
15.236 -100.8566 -47.034199
15.4856 -101.2544 -46.825001
21.9118 -101.079 -47.027401
15.8252 -101.6422 -46.996799
16.267 -101.8546 -47.191601
21.701599 -101.8936 -46.966599
21.240801 -102.373 -46.9688
17.4508 -102.7728 -46.922001
20.3514 -102.756 -47.052799
20.781601 -102.7222 -46.8298
18.1658 -103.0362 -47.190399
18.006399 -103.0676 -46.942001
19.0746 -102.9888 -47.2258
19.801001 -103.0392 -46.953201
18.3232 -103.1702 -46.970001
18.686199 -103.2676 -46.844799
11.8348 -90.402199 -46.334202
12.267 -90.1782 -46.500999
12.7676 -90.007599 -46.717602
13.303 -90.052803 -46.458401
13.849 -90.011398 -46.476799
15.332 -90.272202 -46.577999
11.5452 -90.750603 -46.4744
15.8756 -90.6418 -46.607399
11.391 -91.174599 -46.4856
16.275999 -91.224403 -46.530201
16.587999 -91.678802 -46.587399
11.3564 -92.198196 -46.626202
11.4832 -92.758598 -46.512798
17.4184 -92.773003 -46.407799
11.645 -93.310997 -46.507801
17.836 -93.179398 -46.554199
11.9166 -94.041801 -46.518398
18.329201 -93.534401 -46.408001
18.7288 -93.829597 -46.5014
19.136 -94.2696 -46.622398
12.1714 -94.664597 -46.6008
19.572599 -94.797997 -46.532799
12.3594 -95.245796 -46.505001
20.07 -95.365601 -46.4636
12.5162 -95.8284 -46.412399
20.153799 -95.681602 -46.787998
20.461 -95.926399 -46.4814
12.6344 -96.3022 -46.5494
12.8344 -96.816597 -46.417801
13.0348 -97.282997 -46.486198
21.125799 -97.254402 -46.6646
13.612 -98.123802 -46.612
21.339199 -97.761002 -46.352402
21.5084 -98.325996 -46.461201
14.3752 -99.084 -46.354401
21.816 -99.0354 -46.438801
14.6876 -99.707001 -46.596802
22.084999 -99.585602 -46.4842
22.0704 -99.874802 -46.703201
22.2764 -99.951599 -46.343601
22.233801 -100.5108 -46.502998
15.1884 -100.7746 -46.515202
15.4756 -101.2708 -46.306
22.2248 -101.5346 -46.375198
15.7518 -101.7202 -46.486599
16.212799 -102.1218 -46.599998
21.959801 -102.1564 -46.4832
16.815599 -102.584 -46.486401
21.235201 -102.8364 -46.460999
21.7178 -102.539 -46.4328
17.7918 -103.0828 -46.5798
17.350201 -102.9542 -46.327999
20.3482 -103.1348 -46.542999
20.8288 -103.0396 -46.4076
18.2346 -103.3684 -46.451401
18.7376 -103.507 -46.4902
19.239201 -103.5422 -46.486599
19.8624 -103.4634 -46.403198
11.8874 -90.5466 -45.9422
12.2574 -90.3936 -46.020199
12.8074 -90.307999 -46.098598
13.6044 -90.331802 -45.993401
13.235 -90.367599 -45.994999
14.1406 -90.228798 -46.045399
14.605 -90.243599 -45.981998
15.069 -90.355598 -46.049599
11.6224 -90.770798 -46.011002
15.6408 -90.723198 -45.983799
11.4526 -91.221802 -46.005199
16.2806 -91.333199 -45.7976
11.3388 -91.679398 -46.063999
16.489599 -91.5896 -46.146999
11.3192 -92.181396 -46.077999
16.754999 -91.887604 -46.098
17.0728 -92.293198 -45.755402
11.4188 -92.736198 -46.02
17.2542 -92.545403 -46.103802
17.500601 -92.869202 -45.924999
11.5978 -93.255798 -46.021999
17.8002 -93.180603 -45.999199
11.786 -93.729401 -46.090199
18.2444 -93.505402 -45.998001
18.694201 -93.8312 -45.9986
12.0102 -94.220802 -45.869202
19.2118 -94.352997 -46.09
12.2034 -94.723602 -46.1478
19.777599 -94.971001 -46.090401
12.4228 -95.237396 -45.871601
20.2854 -95.613602 -45.948002
12.5314 -95.664803 -46.052799
12.7118 -96.180801 -45.940399
20.712799 -96.233597 -46.103001
12.8488 -96.6502 -46.081402
20.951401 -96.738403 -45.8908
13.0496 -97.111397 -45.996601
21.159599 -97.236198 -46.144001
13.412 -97.782799 -45.938999
21.380199 -97.764397 -45.841202
13.9904 -98.559402 -45.968601
21.558399 -98.254601 -45.968601
21.756001 -98.735199 -46.003399
14.4846 -99.205399 -45.8326
14.68 -99.625 -46.072399
22.3314 -99.764397 -45.957199
14.8782 -100.1934 -46.0658
22.454399 -100.2174 -46.087601
15.21 -100.8404 -45.801998
22.566601 -100.7704 -45.919201
15.4848 -101.352 -45.8582
22.5944 -101.4106 -45.8736
15.6792 -101.7412 -45.991402
22.492201 -101.8628 -45.877998
15.9296 -102.077 -46.107201
22.176399 -102.312 -46.0466
16.295 -102.4084 -46.021599
16.830799 -102.8266 -45.909801
21.950399 -102.7212 -46.010799
17.2442 -103.0274 -46.032001
17.743401 -103.1842 -46.260201
17.4918 -103.1488 -46.063999
20.665199 -103.3574 -46.137001
21.094801 -103.2802 -46.0354
21.635599 -103.0596 -45.938599
17.7362 -103.371 -45.983398
18.107 -103.7796 -45.813801
18.7138 -103.79 -46.114799
20.260401 -103.6304 -46.044201
19.7404 -103.8822 -45.971001
19.180401 -104.0646 -45.802399
11.811 -90.777397 -45.738998
12.2524 -90.764397 -45.539001
12.6586 -90.602402 -45.7038
13.2056 -90.6502 -45.512402
13.8846 -90.5158 -45.503601
14.4032 -90.441399 -45.502399
14.89 -90.487 -45.497799
15.3914 -90.709602 -45.4496
11.7306 -91.153801 -45.461399
12.739 -90.793602 -45.4412
15.8888 -91.072403 -45.351002
11.4412 -91.731201 -45.503201
16.753201 -91.8508 -45.591801
16.5858 -91.672997 -45.871399
11.342 -92.235802 -45.513199
11.3696 -92.742996 -45.506599
17.416401 -92.757599 -45.5704
11.522 -93.240997 -45.5298
17.788601 -93.140404 -45.515999
11.766 -93.7332 -45.635201
18.1598 -93.435204 -45.581799
18.652399 -93.757797 -45.404999
12.0126 -94.195396 -45.278999
19.028799 -94.201797 -45.594799
12.2562 -94.737602 -45.616199
19.622801 -94.901199 -45.502201
12.4148 -95.160797 -45.4184
12.636 -95.735199 -45.4338
20.247999 -95.703796 -45.361401
12.8308 -96.2416 -45.486
20.6542 -96.231003 -45.6292
13.0722 -96.742599 -45.499001
20.8906 -96.752998 -45.358799
13.3362 -97.390999 -45.5014
21.177601 -97.306396 -45.537601
13.5312 -97.866997 -45.421398
21.370199 -97.8312 -45.367401
13.7468 -98.264198 -45.556
21.5662 -98.248802 -45.452
14.1636 -98.818398 -45.427799
21.843201 -98.737198 -45.5098
14.4876 -99.2528 -45.489201
22.1472 -99.281799 -45.637001
14.6526 -99.677399 -45.513199
22.433201 -99.712196 -45.5406
22.576 -99.985802 -45.511002
22.5958 -100.2316 -45.734001
22.703199 -100.413 -45.184799
22.741199 -101.197 -45.431
15.43 -101.2954 -45.378601
15.635 -101.7698 -45.474998
22.711399 -101.7818 -45.472
15.9412 -102.2252 -45.597198
22.5158 -102.4038 -45.4422
16.3452 -102.5834 -45.6022
16.573999 -102.8132 -45.507801
22.1082 -102.836 -45.649399
17.274799 -103.1784 -45.825401
16.889601 -103.1332 -45.475601
21.812401 -103.3196 -45.4118
17.4478 -103.518 -45.582001
20.7362 -103.71 -45.754002
21.282801 -103.647 -45.492599
17.7386 -103.8944 -45.396801
18.568199 -104.136 -45.564201
20.1994 -104.076 -45.510201
19.6052 -104.214 -45.483398
20.7614 -104.0458 -45.3228
18.134399 -104.0814 -45.470402
19.0096 -104.3978 -45.114399
13.7624 -90.690399 -44.986
13.33 -90.853996 -44.916199
14.279 -90.595001 -44.999001
14.7712 -90.603996 -44.999001
15.1866 -90.7052 -45.0298
11.8106 -91.3032 -44.8522
12.2352 -91.0336 -44.999001
12.8082 -90.930199 -45.058998
15.6752 -91.0056 -44.806999
16.025 -91.234001 -44.9198
11.5328 -91.733803 -44.9828
16.308001 -91.433998 -45.034801
16.6982 -91.787598 -45.084801
11.4122 -92.249603 -45
17.040199 -92.240601 -45.0742
11.4184 -92.75 -45
17.3708 -92.712997 -45.0714
11.5352 -93.253403 -45.039799
17.7034 -93.060204 -45.117199
18.2384 -93.448799 -45.041
11.7122 -93.6642 -45.195
18.655001 -93.637398 -45.042999
18.8228 -93.875999 -44.9706
19.084999 -94.325996 -45.062
12.252 -94.737602 -45.116798
12.0926 -94.3592 -44.895401
19.507401 -94.884804 -44.889801
12.4508 -95.229202 -45.003201
19.9534 -95.377197 -44.945599
20.323 -95.868401 -44.911999
13.002 -96.301598 -45.056
20.5832 -96.267403 -45.1194
13.3484 -96.799797 -44.868198
20.8398 -96.7696 -44.855202
13.494 -97.249001 -44.985199
21.0536 -97.163399 -45.068199
13.5884 -97.695801 -45.105202
21.2458 -97.622002 -44.985802
13.8382 -98.282402 -44.992802
21.531601 -98.223602 -44.7784
14.1088 -98.866203 -44.9324
21.8466 -98.714401 -44.9758
14.3754 -99.266197 -45.136398
22.223801 -99.193604 -45.0326
14.532 -99.753799 -44.8778
22.507799 -99.7062 -45.2094
14.8348 -100.3178 -45.1842
15.1688 -100.9036 -45.083401
22.7824 -101.1908 -44.778
15.3948 -101.2856 -44.9734
15.617 -101.8782 -44.762199
22.8002 -101.7342 -44.979
15.8328 -102.2486 -45.104198
22.753401 -102.2734 -44.9818
16.2994 -102.797 -45.137001
22.566999 -102.7852 -44.921398
17.068399 -103.6476 -44.9916
22.2136 -103.0992 -45.125599
21.638399 -103.7318 -44.785599
20.420401 -104.3092 -44.961399
20.77 -104.195 -45.0508
21.0916 -104.0546 -45.034599
18.0718 -104.2848 -45.003201
19.75 -104.438 -44.945599
13.7086 -90.746002 -44.451401
14.2388 -90.625 -44.4916
14.742 -90.641403 -44.507801
15.225 -90.793602 -44.546001
11.8784 -91.374397 -44.5186
12.1392 -91.2024 -44.594799
12.6618 -91.215797 -44.501202
13.1982 -91.006203 -44.5504
16.208799 -91.421402 -44.4622
11.684 -91.729401 -44.504002
16.697201 -91.802002 -44.518002
11.521 -92.25 -44.508598
17.006399 -92.155602 -44.609001
11.5256 -92.756599 -44.508598
17.371799 -92.661201 -44.452202
11.631 -93.282997 -44.538399
17.8472 -93.228401 -44.562401
11.8516 -93.881599 -44.7528
18.386801 -93.752998 -44.492599
18.6152 -93.730003 -44.805801
12.2368 -94.679802 -44.5028
18.797001 -94.108803 -44.631199
19.162201 -94.627403 -44.492802
19.7798 -95.279602 -44.266998
12.8048 -95.723999 -44.555199
20.2276 -95.785202 -44.482201
20.580601 -96.325203 -44.549599
13.3072 -96.497803 -44.407799
20.865801 -96.846001 -44.4062
13.6114 -97.102798 -44.1194
21.096399 -97.309998 -44.550598
13.75 -97.732002 -44.534599
21.3272 -97.819 -44.493801
13.9748 -98.283401 -44.226799
14.0878 -98.771797 -44.498001
21.892401 -98.744003 -44.490799
14.2814 -99.267197 -44.6362
22.2288 -99.112999 -44.485001
22.589199 -99.753799 -44.497799
14.4414 -99.751198 -44.332802
14.6322 -100.2492 -44.512199
14.8886 -100.6778 -44.647202
22.7892 -100.7104 -44.175201
15.2342 -101.1996 -44.550999
15.4942 -101.669 -44.277802
22.8048 -101.4264 -44.187599
22.7974 -101.7474 -44.492199
22.780399 -102.2364 -44.493999
15.9174 -102.5836 -44.686001
22.625799 -102.7778 -44.496601
16.250601 -103.2094 -44.4618
22.256599 -103.2766 -44.558601
16.7834 -103.885 -44.334999
20.812599 -104.2562 -44.819199
21.1078 -104.1652 -44.600399
17.4792 -104.3296 -44.481602
18.5846 -104.6974 -44.508598
20.064199 -104.5416 -44.5658
20.569799 -104.4072 -44.362598
18.0534 -104.6794 -44.403999
19.184999 -104.6856 -44.501999
19.633801 -104.678 -44.412399
13.5176 -90.9226 -44.1712
13.786 -90.692398 -44.098202
14.1542 -90.714996 -43.986
14.7244 -90.697601 -44.006001
15.1618 -90.803802 -44.098999
12.1688 -91.628197 -44.201
13.1712 -91.286797 -44.1856
13.567 -91.247597 -43.887402
15.7296 -91.165398 -44.096199
12.8252 -91.672401 -43.951401
13.2836 -91.602402 -43.8368
16.222 -91.527603 -43.993401
16.624399 -91.834198 -43.943001
11.8534 -92.281998 -44.0266
17.097799 -92.267998 -44.0462
11.6964 -92.743202 -44.092201
17.4722 -92.726196 -43.876598
11.7872 -93.297997 -44.023602
17.8276 -93.178001 -43.915199
11.9006 -93.906799 -44.172798
18.2684 -93.736397 -43.957199
12.1378 -94.4338 -43.959801
18.719801 -94.244598 -44.160599
12.3192 -94.749397 -44.102798
12.286 -94.667801 -43.904598
12.4396 -94.895599 -43.875401
19.195801 -94.780998 -43.875599
12.572 -95.177597 -44.095798
12.9172 -95.734802 -43.8862
20.245001 -95.832199 -44.007801
13.2034 -96.190804 -44.021198
20.4688 -96.169403 -44.106201
13.4336 -96.532402 -43.514599
20.792601 -96.683197 -43.957199
21.0364 -97.170601 -44.088001
21.365801 -97.706398 -43.946999
13.8544 -97.7686 -43.167198
14.1402 -98.553398 -43.457001
21.541 -98.129204 -44.1982
14.1748 -98.7882 -43.987801
21.879999 -98.545197 -44.076801
14.289 -99.252602 -44.104599
22.172199 -98.948997 -44.110199
22.5278 -99.367798 -43.759399
14.585 -100.2554 -43.987
14.4584 -99.756203 -43.7976
14.8266 -100.747 -44.167999
15.1708 -101.2766 -43.932201
15.4564 -101.7712 -43.830399
22.797001 -102.0872 -43.944801
15.6408 -102.1724 -44.0252
15.8276 -102.7384 -44.134201
22.642599 -102.7404 -43.993198
16.0058 -103.2056 -44.0298
22.351601 -103.2536 -44.006599
16.2598 -103.565 -44.014801
21.892401 -103.6966 -44.001202
16.597 -104.0322 -43.828602
21.177 -104.1606 -43.8554
17.1488 -104.3722 -43.987202
17.6984 -104.7218 -44.001202
19.843 -104.7076 -44.034
20.250601 -104.5548 -43.890999
20.629601 -104.3854 -43.876801
18.2698 -104.9584 -43.950802
18.806999 -104.8956 -44.111801
19.204399 -104.892 -43.962002
13.8074 -90.865196 -43.911999
14.586 -90.981201 -43.498402
15.2806 -91.106796 -43.475601
14.0114 -91.205399 -43.5476
13.6062 -91.597801 -43.5676
16.1898 -91.690804 -43.482399
12.4836 -92.263603 -43.4958
13.2562 -91.925598 -43.333401
16.669399 -91.9944 -43.521599
16.9352 -92.1772 -43.5826
12.0606 -93.079002 -43.497601
17.3048 -92.594398 -43.3484
17.691799 -92.987801 -43.468201
17.972601 -93.326401 -43.351398
12.0812 -93.994202 -43.517799
18.1586 -93.564598 -43.549198
18.410999 -93.905602 -43.437599
18.7008 -94.277 -43.643398
12.3698 -94.724602 -43.504398
19.010799 -94.648003 -43.4146
12.6482 -95.253998 -43.638802
19.34 -94.9664 -43.398998
19.722799 -95.285202 -43.546001
12.9506 -95.7332 -43.364201
20.1938 -95.759201 -43.580799
13.1916 -96.126198 -43.6026
20.551201 -96.244202 -43.651199
20.903 -96.747597 -43.367802
21.131599 -97.223 -43.618801
21.430201 -97.619202 -43.420601
21.6684 -97.943398 -43.5116
21.7658 -98.205399 -43.760601
21.962 -98.247398 -43.316399
22.1236 -98.553802 -43.562
22.254 -98.845596 -43.777
22.4074 -98.912399 -43.444401
22.7742 -100.2038 -43.641399
14.6106 -100.2616 -43.4594
14.5228 -99.820999 -43.338799
14.8098 -100.8226 -43.577
22.943001 -100.8506 -43.3894
15.037 -101.2124 -43.527802
22.9424 -101.4566 -43.5658
15.2192 -101.5066 -43.542198
15.3706 -101.7904 -43.535198
15.4648 -102.1332 -43.402802
22.926399 -102.1938 -43.336601
15.67 -102.7192 -43.5214
22.7026 -102.719 -43.4786
15.8988 -103.3042 -43.5952
22.4522 -103.2406 -43.471802
16.058599 -103.7286 -43.394001
16.198601 -103.731 -43.701199
22.145 -103.6092 -43.498402
16.312799 -103.963 -43.521599
16.538799 -104.1766 -43.417999
21.7456 -103.9554 -43.273998
16.896 -104.3964 -43.5116
17.3202 -104.6522 -43.623001
19.841801 -104.7976 -43.414799
20.3298 -104.534 -43.561199
20.6626 -104.4034 -43.503601
17.6752 -104.9478 -43.510601
18.6772 -105.1012 -43.7104
19.3022 -104.9896 -43.483002
18.920401 -105.1224 -43.516201
18.1192 -105.2368 -43.362598
18.5898 -105.2794 -43.3494
14.3038 -91.463799 -42.905399
14.8322 -91.198196 -43.035801
15.1964 -91.290001 -42.721199
13.8058 -91.679001 -43.178001
15.8148 -91.648399 -42.7052
13.0168 -92.376999 -42.587399
16.3556 -92.033997 -42.870998
16.7918 -92.237 -43.1134
12.4 -92.839401 -42.869801
12.2032 -93.327797 -42.9254
12.1466 -93.700401 -43.090401
18.260599 -93.736 -43.007
12.2088 -94.095596 -42.9856
18.6952 -94.307999 -43.0578
12.3402 -94.469002 -43.043201
12.5584 -94.866203 -42.945999
19.132401 -94.834 -42.966599
12.7142 -95.252998 -43.116402
19.5982 -95.273804 -42.9632
13.0396 -95.750198 -42.763599
20.096201 -95.740402 -42.9972
13.2246 -96.134201 -43.134399
20.586599 -96.303001 -43.0728
20.910801 -96.763397 -42.986801
21.201401 -97.281601 -42.943199
21.683001 -97.856598 -43.036201
22.014 -98.279999 -42.848999
14.3508 -99.261597 -43.466801
22.302799 -98.717796 -43.046398
22.605801 -99.326202 -43.045601
14.4972 -99.668404 -42.957199
22.836201 -100.0638 -43.0042
14.6098 -100.1832 -42.950001
14.722 -100.8104 -42.9188
22.9554 -100.598 -43.0924
14.9726 -101.299 -43.174
23.084 -100.9008 -42.983002
23.2068 -101.2488 -42.9296
15.158 -101.8154 -42.9254
15.232 -101.7094 -43.304001
23.204599 -101.8322 -42.990398
15.3854 -102.2358 -42.983799
23.138399 -102.323 -42.895
15.5204 -102.6814 -42.932201
22.9116 -102.738 -42.9646
15.6928 -103.1442 -43.090801
22.635799 -103.1734 -43.033199
15.9008 -103.6046 -43.013401
22.305201 -103.8404 -42.7304
16.2442 -104.0072 -43.135799
16.620001 -104.3688 -43.033199
21.253599 -104.2966 -42.965599
17.1084 -104.719 -43.177799
20.267 -104.7248 -43.012001
20.8262 -104.425 -43.159
17.3934 -105.12 -42.9398
18.8596 -105.2876 -43.1106
19.353201 -105.1868 -42.906799
19.7782 -104.974 -42.960201
17.7964 -105.4108 -42.889801
18.333799 -105.4484 -42.965599
14.7994 -91.415001 -42.4328
13.7284 -91.9226 -42.654598
15.435 -91.456596 -42.2048
16.333599 -92.077797 -42.450401
16.8622 -92.450203 -42.363602
12.5712 -92.819801 -42.418201
17.2598 -92.722603 -42.654598
12.2614 -93.228401 -42.591
12.3518 -93.003998 -42.497601
17.787001 -93.235802 -42.743
12.2684 -93.809402 -42.593201
18.174999 -93.761597 -42.446999
12.3594 -94.289001 -42.7286
12.4426 -94.334801 -42.398998
18.493799 -94.132599 -42.498402
12.5412 -94.662003 -42.6096
18.846001 -94.607803 -42.417198
12.8 -95.199402 -42.488998
19.327 -95.158401 -42.328602
19.940399 -95.779999 -42.303001
20.4018 -96.245796 -42.487
20.8132 -96.806198 -42.5634
13.5942 -96.940002 -42.7752
21.0578 -97.2826 -42.4254
21.2456 -97.497398 -42.4874
21.5114 -97.729401 -42.514599
14.1068 -98.430397 -42.641201
21.8076 -98.030197 -42.570999
22.02 -98.354599 -42.418598
14.3362 -99.141602 -42.786598
22.2388 -98.662598 -42.5718
22.527399 -99.191002 -42.445
14.5468 -99.925797 -42.376999
22.805599 -99.801804 -42.4888
22.9722 -100.2438 -42.492802
14.6562 -100.582 -42.491798
23.221001 -100.8002 -42.507
23.4112 -101.2694 -42.524799
14.87 -101.3638 -42.6814
14.9902 -101.7652 -42.392399
23.468599 -101.6802 -42.5326
15.2732 -102.2502 -42.614601
23.3964 -102.1536 -42.587601
15.432 -102.7608 -42.345402
23.283199 -102.6768 -42.486599
15.6848 -103.3858 -42.492199
22.951401 -103.2766 -42.515598
22.9632 -103.9714 -42.0252
16.163 -104.0922 -42.5116
21.677999 -104.2126 -42.690399
16.7544 -104.7004 -42.576401
20.7666 -104.7312 -42.5084
21.3272 -104.5176 -42.448601
17.052 -105.1092 -42.4174
19.8312 -105.1754 -42.549599
20.2738 -104.9492 -42.5158
17.4172 -105.367 -42.555599
17.942801 -105.6028 -42.417599
18.867599 -105.613 -42.473801
19.387199 -105.4366 -42.475399
15.139 -91.330803 -42.3134
15.1102 -91.472603 -41.991001
14.2808 -91.812401 -42.0522
14.767 -91.586601 -41.997601
15.8676 -91.715401 -41.938801
13.5962 -92.175003 -42.022598
16.1766 -91.940804 -42.132999
16.625601 -92.232399 -41.929401
12.7496 -92.819199 -41.999199
13.1554 -92.482201 -41.917801
12.3742 -93.355598 -42.121399
17.572201 -93.188599 -41.844398
12.3848 -94.139397 -42.014801
17.9944 -93.690399 -42.0014
18.3076 -94.012802 -42.0858
18.572201 -94.339996 -42.014599
12.6086 -94.754204 -42.054001
12.8886 -95.325203 -41.829399
13.1176 -95.832397 -42.0662
13.34 -96.310402 -42.5574
20.377199 -96.325401 -41.9902
20.701799 -96.740402 -42.0238
20.9492 -97.1446 -42.110802
13.6698 -97.347397 -41.8172
21.2798 -97.570999 -42.076
13.9486 -98.0382 -42.370399
14.0674 -98.365601 -41.911999
21.797001 -98.146202 -42.001801
14.3032 -99.1492 -41.938801
22.257999 -98.805397 -42.052399
22.5322 -99.305397 -41.912399
14.4918 -99.753601 -41.957001
22.752199 -99.670403 -41.9468
14.5756 -100.1872 -41.8218
23.0888 -100.2706 -41.954201
14.6554 -100.671 -41.989799
23.4146 -100.8476 -41.9184
14.7624 -101.2502 -42.172199
23.565399 -101.1554 -42.009998
23.5632 -101.4022 -42.2272
23.686399 -101.503 -41.934799
14.9144 -101.757 -42.022999
23.6208 -102.1858 -42.065399
15.1532 -102.209 -42.0476
15.434 -102.7566 -41.8326
23.4198 -103.27 -41.987202
15.5772 -103.2572 -41.9734
15.6664 -103.5996 -42.023998
15.832 -103.849 -42.079601
16.032 -104.1946 -41.858398
16.3654 -104.4864 -42.0816
16.701401 -104.8634 -42.007
21.799601 -104.5648 -42.202801
22.4258 -104.597 -41.926601
17.217199 -105.3414 -41.981602
20.3468 -105.2432 -42.0826
20.795601 -105.0434 -42.021
21.2418 -104.9074 -42.021198
17.8316 -105.8128 -41.808399
19.656 -105.6716 -42.0606
18.4652 -105.9486 -41.9814
19.1394 -106.0518 -41.831402
14.9144 -91.722198 -41.568199
14.39 -91.986603 -41.406601
15.5006 -91.615799 -41.6628
15.8932 -91.750603 -41.431
16.308599 -91.987 -41.489799
13.4166 -92.431602 -41.527199
13.9002 -92.179802 -41.502201
16.816401 -92.3452 -41.397598
12.9798 -92.8424 -41.451599
17.152399 -92.684402 -41.592999
12.5314 -93.327797 -41.514801
12.3704 -93.9142 -41.518398
17.962 -93.760399 -41.487
18.3218 -94.144203 -41.579601
12.4946 -94.512199 -41.505798
18.921 -94.806198 -41.5546
12.7214 -95.007401 -41.482399
12.8954 -95.410004 -41.364601
13.0844 -95.933197 -41.319599
19.707199 -95.662003 -41.5564
20.246401 -96.222 -41.639599
13.3968 -96.593399 -41.672798
20.690201 -96.7444 -41.510799
21.0438 -97.229202 -41.669201
13.8732 -98.010201 -41.651402
21.455999 -97.754997 -41.507999
14.02 -98.308197 -41.517601
21.84 -98.246803 -41.408401
14.127 -98.685799 -41.402
22.1626 -98.719398 -41.4916
22.4762 -99.246002 -41.526798
14.419 -99.744598 -41.502399
22.645201 -99.5354 -41.640202
14.5352 -100.2726 -41.315399
22.901199 -99.859001 -41.3312
23.2358 -100.3486 -41.4482
14.634 -100.7352 -41.4772
23.4084 -100.6944 -41.576
14.7026 -101.2408 -41.5312
23.7078 -101.4828 -41.527802
14.8762 -101.805 -41.575001
15.191 -102.391 -41.4776
23.839399 -103.1914 -41.383598
15.433 -102.7648 -41.470001
15.557 -103.2008 -41.423
15.733 -103.8028 -41.591599
15.9094 -104.2496 -41.401798
23.464199 -104.0594 -41.545399
16.245001 -104.5698 -41.5438
23.0842 -104.718 -41.513401
16.688601 -105.0036 -41.4986
16.998199 -105.292 -41.500599
20.996201 -105.4408 -41.545601
22.003599 -105.2804 -41.513802
22.601801 -105.0816 -41.544201
23.028799 -105.2566 -41.318199
17.288401 -105.5666 -41.465801
20.232401 -105.8058 -41.562199
22.6954 -105.458 -41.3064
17.6504 -105.8596 -41.379398
18.277201 -106.1202 -41.658798
18.0354 -106.092 -41.423801
18.679001 -106.2572 -41.491001
19.687799 -106.1262 -41.558998
18.330601 -106.252 -41.415798
19.253599 -106.387 -41.287601
14.8426 -91.9086 -40.950199
15.4968 -91.753601 -41.0574
16.0068 -91.8722 -41.0508
13.6866 -92.473396 -41.108398
14.21 -92.268402 -40.938801
16.2792 -92.0252 -41.019199
16.6168 -92.284401 -40.922401
13.3452 -92.670403 -41.199402
13.525 -92.709198 -40.956799
17.1884 -92.747398 -40.9244
12.835 -93.338203 -40.994202
13.2706 -92.946404 -40.9492
17.613001 -93.226997 -41.057201
12.5146 -93.743401 -41.091202
17.923201 -93.692802 -41.0718
12.5352 -94.225403 -41.0084
18.1796 -94.028198 -41.114799
18.523001 -94.403603 -40.999802
12.6606 -94.778801 -40.9944
18.866199 -94.783997 -40.882401
12.8094 -95.284599 -40.9846
19.4646 -95.444397 -40.576599
12.927 -95.691803 -40.972401
20.4674 -96.5718 -40.829201
13.5378 -97.148598 -41.0256
21.0966 -97.321198 -41.052799
21.666599 -98.025002 -40.929001
13.9892 -98.430199 -41.202
14.0596 -98.737602 -40.997398
22.0746 -98.570602 -41.0648
14.1984 -99.224602 -40.84
22.506201 -99.177399 -40.917801
14.408 -99.925598 -40.850399
14.55 -100.427 -40.871201
14.6168 -100.7384 -41.065399
23.4802 -100.6458 -41.111
14.6714 -101.2058 -41.040401
23.848801 -101.2654 -40.999802
14.738 -101.6352 -41.094601
24.100599 -102.0544 -40.679798
14.8766 -102.087 -40.808201
15.2378 -102.7582 -40.970402
15.4714 -103.3286 -40.893398
24.261999 -103.4314 -40.7892
15.6128 -103.7386 -41.001999
15.7382 -104.1542 -41.021999
23.784599 -104.1366 -41.2584
24.157801 -104.2366 -40.928398
15.9392 -104.4484 -41.0858
16.229401 -104.7564 -41.0144
23.711201 -104.597 -41.169601
16.7414 -105.2466 -40.986599
23.6322 -105.1846 -41.035801
17.299801 -105.7944 -40.891399
20.621 -105.9168 -41.200401
21.1488 -105.9828 -40.974201
21.700001 -105.824 -41.066002
22.6224 -105.9576 -40.966202
23.2596 -105.7402 -40.975201
23.8472 -105.6624 -40.733601
17.801001 -106.0488 -41.070801
19.959999 -106.4144 -41.001202
20.666 -106.3252 -40.793999
22.149401 -105.8088 -41.064602
18.347 -106.3516 -41.0056
18.843599 -106.4458 -41.1026
15.2368 -91.795197 -40.660999
14.9774 -91.957397 -40.498199
15.5018 -91.837402 -40.565399
15.7772 -91.889801 -40.687199
14.6446 -92.167397 -40.569801
15.6816 -92.101799 -40.139
16.174601 -92.096802 -40.607601
16.561001 -92.379402 -40.4062
13.7832 -92.736801 -40.604801
14.3212 -92.471802 -40.4282
16.9438 -92.629204 -40.4608
13.3542 -93.261002 -40.4468
17.346001 -92.930801 -40.398201
17.657 -93.251602 -40.4972
12.9046 -93.854599 -40.508202
17.961599 -93.701202 -40.536598
12.7652 -94.4776 -40.5028
18.250401 -94.1064 -40.644798
12.8362 -95.151001 -40.427399
18.701 -94.615799 -40.276402
12.9214 -95.725998 -40.5
13.0622 -96.176804 -40.598
20.433001 -96.528603 -39.7104
13.3018 -96.659798 -40.798401
13.5038 -97.261002 -40.396599
20.947201 -97.228798 -40.588001
13.7118 -97.815804 -40.737598
21.325199 -97.668198 -40.427601
21.8132 -98.127998 -40.399799
13.9336 -98.563797 -40.628799
22.173 -98.582603 -40.569199
23.232201 -100.044 -40.5228
14.5242 -100.38 -40.322201
14.6504 -101.031 -40.5522
23.792 -100.9546 -40.6404
14.7176 -101.5856 -40.7174
14.9444 -102.4388 -40.529999
15.0558 -102.6828 -40.361801
24.3622 -102.9778 -40.447201
15.302 -103.1936 -40.3918
24.4988 -103.5734 -40.3834
15.5034 -103.747 -40.504601
15.636 -104.1022 -40.619202
24.593399 -104.1508 -40.407398
15.8428 -104.4446 -40.671001
16.1598 -104.807 -40.506199
24.125401 -104.8322 -40.831799
24.541 -104.7404 -40.474602
16.507601 -105.2082 -40.3624
24.259199 -105.261 -40.580399
16.8654 -105.53 -40.561199
17.1008 -105.835 -40.407799
24.270399 -105.8974 -40.243401
17.3386 -106.0326 -40.473598
17.729799 -106.231 -40.552601
21.1014 -106.5546 -40.5126
21.6686 -106.52 -40.557598
22.1896 -106.2734 -40.760799
23.202 -106.4132 -40.553001
23.6824 -106.1062 -40.566601
18.3528 -106.7034 -40.334999
19.121 -106.7682 -40.599998
20.745001 -106.6744 -40.461601
20.316799 -106.9836 -40.2952
22.6602 -106.6998 -40.475201
19.756599 -106.8846 -40.487
22.190399 -106.8506 -40.385601
15.2534 -91.939598 -40.356998
14.8392 -92.346199 -40.028801
16.337601 -92.335403 -40.0214
13.7548 -93.034401 -40.085999
14.1466 -92.7864 -40.014198
16.8328 -92.620399 -39.926201
13.6162 -93.3592 -39.928001
17.2796 -92.892998 -39.985001
17.698999 -93.256599 -39.986
13.3726 -93.639999 -40.0718
17.966801 -93.631798 -40.082001
12.9928 -94.265602 -40.0938
13.2348 -93.9804 -39.9482
18.243999 -94.056 -40.064999
12.945 -94.762802 -40.009201
12.9744 -95.295799 -39.899601
13.0156 -95.740402 -39.972401
13.1116 -96.242996 -40.021599
13.2772 -96.737396 -40.1674
13.498 -97.274399 -39.811001
20.9452 -97.237801 -40.0578
13.6618 -97.857201 -39.965801
21.364 -97.685997 -39.908798
21.756599 -98.001999 -39.979599
22.24 -98.4506 -40.021801
13.8178 -98.428802 -39.966202
14.0538 -99.0802 -39.499199
22.7388 -99.1446 -40.119202
14.3368 -99.782204 -39.958401
23.362801 -99.865196 -39.822201
14.5356 -100.3426 -39.695
14.6952 -101.2152 -39.4916
23.964199 -100.8952 -39.826401
24.3566 -101.8426 -39.846001
14.7416 -101.6488 -40.273399
24.459999 -102.5314 -40.0546
14.8956 -102.2232 -39.746399
15.1774 -102.8446 -39.785999
15.3478 -103.2936 -39.796001
24.627001 -103.248 -39.992802
15.435 -103.7532 -39.9884
24.7852 -103.8704 -39.9846
15.7148 -104.3312 -40.137402
24.8692 -104.2416 -40
16.1404 -104.8962 -40.0112
24.906601 -104.5918 -40.002201
16.427401 -105.2178 -39.998001
24.7988 -105.2142 -40.040401
16.746201 -105.5708 -40.049999
24.822201 -105.8218 -39.804199
17.277201 -106.1782 -39.951401
17.835199 -106.5262 -40.069801
18.1614 -106.8448 -39.8988
23.721201 -106.6344 -40.101601
18.7906 -107.0442 -40.158001
18.5084 -107.0512 -39.9636
19.1138 -107.179 -40.009602
19.681 -107.2474 -39.959
20.899599 -107.1296 -40.093201
21.399 -107.154 -40.0756
21.9174 -107.256 -40.049801
22.569799 -107.344 -39.956402
23.1152 -107.0058 -40.115799
18.789 -107.227 -39.832199
15.4476 -92.285797 -39.385399
14.8326 -92.588799 -39.348999
16.1674 -92.3312 -39.522202
14.3942 -92.875801 -39.490002
16.614799 -92.508003 -39.591999
16.934999 -92.670601 -39.428001
13.9026 -93.252602 -39.498001
17.257401 -92.863998 -39.489799
17.6738 -93.180603 -39.495998
13.5612 -93.797997 -39.570999
18.162201 -93.775803 -39.3666
13.2522 -94.407204 -39.614799
18.5432 -94.3834 -39.5662
13.1262 -95.048599 -39.542999
13.1498 -95.666801 -39.423801
13.2076 -96.223198 -39.4496
13.3354 -96.75 -39.554401
13.5786 -97.345596 -39.0396
20.957399 -97.176399 -39.548801
13.655 -97.767998 -39.485001
21.320601 -97.547203 -39.5144
21.697001 -97.878197 -39.581799
22.1814 -98.259804 -39.5312
13.7962 -98.365997 -39.3708
22.620399 -98.743401 -39.613201
23.0432 -99.306801 -39.441601
23.437401 -99.826401 -39.366798
14.4304 -99.999802 -39.4748
14.5652 -100.3442 -39.096001
23.749399 -100.2676 -39.365398
14.67 -100.8222 -39.0336
24.302799 -101.4526 -39.468201
24.462 -101.8206 -39.421001
24.590599 -102.0968 -39.493401
24.607 -102.3314 -39.659599
24.7798 -102.4032 -39.342999
24.8214 -102.865 -39.493599
15.3506 -103.063 -39.353001
15.4264 -103.3824 -39.357201
15.4278 -103.7614 -39.472801
25.065399 -103.6274 -39.413799
15.5564 -104.258 -39.524601
25.166 -104.247 -39.535198
15.8436 -104.6884 -39.619202
25.243999 -104.8502 -39.525002
16.263 -105.191 -39.578201
25.188999 -105.4622 -39.537399
16.7234 -105.7912 -39.445999
25.1068 -106.083 -39.3848
25.371 -105.7428 -39.2164
17.0406 -106.202 -39.48
24.465 -106.5692 -39.586399
17.2402 -106.4562 -39.4044
17.7122 -106.7148 -39.548599
18.3976 -107.1994 -39.442402
23.4224 -107.476 -39.4636
19.157 -107.4324 -39.4986
19.666 -107.4966 -39.523201
20.2176 -107.5132 -39.742001
19.969601 -107.5958 -39.5294
20.684799 -107.6916 -39.646
21.2374 -107.7072 -39.663799
21.6698 -107.6556 -39.726002
22.170799 -107.8522 -39.556801
20.2868 -107.864 -39.365601
21.611601 -108.116 -39.372398
22.7012 -107.7692 -39.5368
15.1004 -92.392197 -39.057999
15.4068 -92.249199 -38.918999
15.6766 -92.225403 -38.972
16.1394 -92.367599 -38.936199
14.629 -92.9254 -38.967201
14.8924 -92.609596 -38.9674
16.6756 -92.542 -39.147598
17.145201 -92.8162 -39.013401
13.9476 -93.468399 -38.8988
14.2336 -93.187798 -39.004799
17.562401 -93.092201 -39.048599
17.9084 -93.388397 -39.021198
13.748 -93.795197 -38.998199
13.57 -94.342796 -39.048801
18.6546 -94.417198 -38.985401
13.3554 -94.773003 -39.2318
13.5046 -94.8582 -38.878799
19.462601 -95.403603 -39.095001
13.318 -95.305603 -39.0326
13.2708 -95.737602 -38.996799
13.2816 -96.098602 -38.940201
13.4168 -96.684799 -38.790401
20.577999 -96.571602 -38.9366
21.215799 -97.280998 -39.0868
13.731 -97.997398 -38.955799
21.954599 -98.006203 -39.082802
22.660801 -98.750397 -39.079601
23.051001 -99.315804 -38.930801
14.3642 -99.835403 -38.915798
23.2974 -99.657997 -39.047798
14.5778 -100.3892 -38.5756
23.649401 -100.1012 -38.868599
24.164801 -100.7962 -38.666599
24.3452 -101.2786 -39.0158
24.478201 -101.6774 -39.1054
24.690201 -102.085 -39.131401
15.2266 -102.8148 -38.6936
25.0336 -102.605 -38.872002
15.4536 -103.3006 -38.895802
25.205999 -103.2882 -39.008598
15.4874 -103.7612 -38.980202
25.353201 -103.6762 -38.972
15.5314 -104.2572 -39.005001
25.552799 -103.9772 -38.714199
25.565201 -104.5608 -38.983601
15.8 -104.8148 -39.070801
25.531 -105.236 -39.050201
16.2458 -105.4022 -39.005402
16.547001 -105.765 -39.010601
25.5268 -105.716 -38.952801
16.851601 -106.1788 -39.021599
25.433201 -106.1618 -38.855598
17.298 -106.7338 -38.862801
25.007799 -106.7046 -38.9832
24.365999 -107.3056 -38.9548
17.848801 -107.0122 -39.070599
18.1712 -107.278 -38.914398
18.802 -107.5608 -39.142601
18.553801 -107.5328 -38.9254
19.1714 -107.7786 -38.8974
19.754 -107.7948 -39.177799
23.796 -107.842 -38.836399
18.829201 -107.7046 -38.882401
20.241199 -108.257 -38.963402
20.6422 -108.1588 -39.238201
21.0762 -108.1966 -39.292599
21.992201 -108.4382 -39.0182
22.6966 -108.114 -39.166401
23.2384 -108.1676 -38.8508
20.730801 -108.5664 -38.9132
21.291599 -108.621 -38.934399
15.2222 -92.465797 -38.538601
15.8068 -92.315399 -38.555
14.8998 -92.753403 -38.720402
15.0096 -92.754799 -38.466599
16.327999 -92.482399 -38.438202
16.830799 -92.7276 -38.507801
14.2156 -93.514198 -38.521999
14.5102 -93.267403 -38.583
14.832 -93.076202 -38.4184
17.4524 -93.148598 -38.533798
17.7878 -93.337799 -38.709599
13.8876 -94.000397 -38.395401
17.792601 -93.4338 -38.4426
18.207399 -93.751801 -38.392601
13.7176 -94.262604 -38.602798
18.549601 -94.169998 -38.617802
13.6444 -94.740799 -38.5196
19.0518 -94.831001 -38.174
13.5258 -95.284599 -38.478802
13.3924 -95.834 -38.545601
13.3982 -96.324203 -38.455799
13.6294 -97.249001 -38.1772
21.2022 -97.169601 -38.543999
20.587999 -96.553001 -38.235199
13.7408 -97.907204 -38.255402
21.954399 -97.927597 -38.4436
13.9154 -98.646599 -38.5214
22.5958 -98.640602 -38.528198
14.1554 -99.323799 -38.530399
22.961 -99.152397 -38.600399
23.3258 -99.682404 -38.505798
14.4874 -100.1784 -38.315601
14.6774 -100.8566 -38.396599
24.460199 -101.2788 -38.545601
14.7084 -101.377 -38.145802
24.716999 -101.7944 -38.581001
14.879 -102.1764 -37.929798
25.327801 -102.822 -38.401798
25.128201 -102.3308 -38.279202
15.446 -103.3042 -38.348999
25.3682 -103.149 -38.6012
15.536 -103.755 -38.476601
25.469 -103.542 -38.670799
15.5696 -104.25 -38.5
25.768 -104.4492 -38.484001
15.6738 -104.7412 -38.498402
25.802799 -104.915 -38.5224
15.9432 -105.2394 -38.462399
16.374399 -105.7564 -38.568802
25.767799 -105.6138 -38.522598
16.7344 -106.4318 -38.165001
17.0644 -106.7814 -38.431801
25.3134 -106.7874 -38.431
17.273199 -107.0048 -38.4142
17.763599 -107.2354 -38.492199
24.8298 -107.2508 -38.541401
18.318199 -107.5046 -38.5732
24.1936 -107.9538 -38.257801
18.808201 -107.8244 -38.4958
19.2276 -107.9908 -38.5154
19.6656 -108.2356 -38.581001
23.5688 -108.2548 -38.507801
20.237801 -108.7614 -38.474602
22.5618 -108.6754 -38.528599
23.1952 -108.4868 -38.480598
20.7896 -109.0244 -38.458401
21.495199 -109.0552 -38.3904
15.695 -92.5224 -37.967602
15.3202 -92.561401 -38.009399
16.2246 -92.510399 -38.100201
15.113 -92.851997 -38.075001
16.603399 -92.644798 -38.149799
16.916599 -92.844398 -37.992802
14.9604 -93.240799 -38.0116
17.3372 -93.153 -37.944199
14.1698 -93.887604 -38.179798
14.6504 -93.740601 -37.932201
17.7932 -93.487 -38.063202
13.992 -94.205597 -38.043598
14.2002 -94.302803 -37.825001
18.7218 -94.308403 -38.0844
13.7504 -94.595596 -38.205002
19.0056 -94.665001 -37.657799
13.7 -95.170197 -38.0168
13.6402 -95.945198 -37.790798
13.502 -96.284203 -38.0718
13.5438 -96.737198 -38.0634
21.538799 -97.479202 -37.890598
20.914801 -96.860397 -37.463001
22.259001 -98.212196 -37.882198
13.8418 -98.371201 -38.0448
13.9868 -98.751198 -37.8484
22.672199 -98.6894 -37.993801
14.1338 -99.254204 -37.996799
23.099001 -99.290802 -38.062401
14.3154 -99.761803 -38.160198
23.4888 -99.851997 -37.916801
14.4608 -100.2406 -37.840199
23.8312 -100.3006 -38.145802
14.6072 -100.6438 -38.031799
24.58 -101.3324 -38.163399
24.952999 -101.8198 -37.808399
15.2362 -102.8778 -37.7374
25.277399 -102.355 -37.828602
25.393999 -102.7058 -38.0546
15.3376 -103.0462 -38.116402
15.4236 -103.302 -37.851799
25.601801 -103.3316 -38.1026
15.5292 -103.7356 -37.965
25.781799 -103.8916 -37.991402
15.5988 -104.2354 -37.948399
25.862801 -104.3192 -38.058601
15.6686 -104.7334 -37.971802
25.932199 -104.7082 -38.115002
15.7966 -105.1296 -38.033798
26.031 -105.211 -38.0574
26.0446 -105.7726 -38.0126
26.1966 -105.5878 -37.6576
16.129801 -105.702 -37.664001
25.763201 -106.249 -38.213402
17.041401 -106.9876 -38.0522
25.65 -106.8328 -37.839199
24.993799 -107.389 -38.043999
17.357401 -107.2376 -38.080002
17.674801 -107.4806 -37.910599
18.311399 -107.7958 -38.000198
19.2206 -108.2642 -38.166599
18.8358 -108.12 -38.034
19.7024 -108.8278 -37.975201
23.200199 -108.7818 -37.973999
21.922001 -109.435 -37.6996
20.314199 -109.3494 -37.884998
20.8692 -109.3798 -38.043201
21.233801 -109.4906 -37.865601
15.3556 -93.000603 -37.521198
15.8426 -93.032402 -37.276402
16.162399 -92.698997 -37.739601
16.6266 -92.792801 -37.783401
15.0862 -93.349403 -37.665199
16.402201 -92.987602 -37.392601
16.833799 -93.041801 -37.390202
17.100401 -93.037598 -37.604
17.469801 -93.276802 -37.430801
14.9986 -93.759003 -37.4986
17.805799 -93.513199 -37.4818
18.2614 -93.826202 -37.554401
14.4286 -94.840797 -37.206001
14.873 -94.203598 -37.282799
18.7178 -94.242599 -37.603199
13.9278 -94.805 -37.746601
19.375799 -95.1884 -37.368999
13.8246 -95.559196 -37.5098
20.1024 -96.054604 -37.1586
13.6314 -96.690399 -37.584801
13.6608 -97.156601 -37.6278
21.419001 -97.325401 -37.3256
13.739 -97.686798 -37.575199
21.820801 -97.721397 -37.3736
13.8554 -98.263199 -37.657001
22.2362 -98.164001 -37.407799
14.039 -98.745201 -37.347801
22.6954 -98.716797 -37.4758
14.1318 -99.2332 -37.489201
23.065001 -99.2052 -37.507599
14.2606 -99.790398 -37.567001
23.422199 -99.731201 -37.424801
14.389 -100.2744 -37.404202
23.891399 -100.323 -37.443199
14.5184 -100.7234 -37.416
14.6372 -101.168 -37.599602
24.4578 -101.034 -37.639
25.332399 -102.2646 -37.368401
25.572399 -102.8194 -37.548199
15.4368 -103.2564 -37.344398
25.7918 -103.3428 -37.435398
15.5392 -103.6342 -37.526402
25.842199 -103.6844 -37.579399
15.6202 -104.0742 -37.3494
25.975599 -104.1372 -37.508202
15.7014 -104.7204 -37.047798
26.1322 -104.8776 -37.536999
15.7982 -105.1896 -37.403801
16.475 -106.2336 -37.567402
26.083599 -106.2936 -37.611
16.663401 -106.6784 -37.2616
25.9818 -106.7684 -37.492401
16.879999 -107.004 -37.556599
25.321199 -107.3452 -37.587601
25.7614 -107.0554 -37.417599
17.253201 -107.403 -37.523602
24.715599 -107.927 -37.565201
17.839399 -107.8056 -37.429001
18.353399 -108.0942 -37.506599
18.9582 -108.5594 -37.578602
23.933201 -108.6132 -37.528198
19.719801 -109.5484 -37.202202
23.3318 -109.1166 -37.381401
22.690201 -109.504 -37.210999
20.302401 -109.7514 -37.382801
20.781601 -109.7202 -37.540798
21.274599 -109.6802 -37.570599
15.4106 -93.658401 -36.700401
15.871 -93.518402 -36.564602
16.3008 -93.253197 -36.861599
16.766399 -93.179604 -36.9828
17.270201 -93.245003 -37.0634
15.158 -93.764999 -37.145599
17.722601 -93.458603 -37.065601
18.253 -93.834 -36.778198
15.0404 -94.248001 -36.9734
18.756399 -94.244797 -37.005402
14.8866 -94.634598 -36.846001
19.1672 -94.781799 -37.085999
19.440399 -95.212601 -36.987801
14.049 -95.504204 -37.150799
19.652599 -95.517998 -36.931999
13.9378 -96.1054 -36.999802
13.7664 -96.670601 -37.069801
21.0016 -96.958 -36.752399
13.7324 -97.345398 -37.080002
21.2054 -97.109398 -37.0294
21.504801 -97.395599 -36.883999
21.806 -97.708199 -36.964199
13.9028 -98.204002 -36.988998
22.1182 -98.008797 -37.0718
22.344801 -98.269997 -36.997601
14.0958 -98.832603 -36.919201
22.608601 -98.690002 -36.870399
14.1382 -99.1586 -37.085999
23.0142 -99.206596 -37.000599
14.174 -99.596001 -37.068802
23.2698 -99.531403 -37.0798
23.5042 -99.8564 -36.917
14.2526 -100.0702 -37.074799
23.7918 -100.1912 -36.990601
14.3632 -100.494 -37.0252
14.4232 -100.8788 -36.909
14.5052 -101.2594 -36.985401
24.547199 -100.9688 -36.651199
14.6286 -101.7272 -37.1492
25.055599 -101.7412 -37.1208
25.409201 -102.2222 -36.989799
15.1708 -102.8386 -37.1138
25.6436 -102.6796 -36.937801
15.4228 -103.2266 -36.994999
25.811199 -103.171 -37.079201
15.5532 -103.6242 -36.909199
26.0154 -103.7292 -36.9562
26.2094 -104.4012 -36.986401
26.351999 -105.005 -36.9002
15.902 -105.4942 -35.612202
26.364201 -105.9158 -36.936798
16.343 -106.2108 -36.857399
26.040001 -106.8958 -37.061001
16.9762 -107.426 -36.666199
25.4058 -107.5906 -37.067799
17.4338 -107.7704 -36.992802
17.766001 -108.0162 -36.969799
18.277 -108.4142 -37.021198
24.538 -108.4916 -36.9174
18.9468 -109.2596 -36.832401
23.701401 -109.144 -36.960201
22.913601 -109.662 -36.829601
23.167999 -109.4392 -37.005402
20.523199 -110.1156 -36.8186
21.2232 -109.877 -37.240002
21.701401 -110.0542 -36.7654
16.691799 -93.268799 -36.621799
16.450199 -93.393204 -36.473999
17.149401 -93.382004 -36.423199
16.207199 -93.481796 -36.493999
17.733801 -93.513 -36.548199
15.1538 -94.303398 -36.584599
18.833401 -94.326401 -36.488201
15.0266 -94.748199 -36.4874
19.1436 -94.659798 -36.6092
14.8042 -95.150398 -36.445202
19.490801 -95.217003 -36.493198
14.3342 -95.754204 -36.573399
19.829399 -95.733002 -36.366402
14.1394 -96.329201 -36.4338
13.9526 -96.640999 -36.590599
13.831 -97.174202 -36.472
21.4056 -97.335403 -36.516399
13.8098 -97.756203 -36.508598
21.726601 -97.667999 -36.464001
13.9688 -98.277802 -36.344799
22.1542 -98.147797 -36.5466
14.0936 -98.765198 -36.498798
22.5846 -98.821198 -35.894402
14.1994 -99.320396 -36.651402
23.035 -99.360603 -36.3596
14.2612 -99.880798 -36.707001
14.383 -99.784599 -36.3074
23.371599 -99.719803 -36.5704
14.2982 -100.286 -36.75
14.4156 -100.265 -36.4016
23.840799 -100.2238 -36.510799
14.3968 -100.7304 -36.521999
14.438 -101.2596 -36.494598
14.5318 -101.767 -36.513802
14.8424 -102.4506 -36.643002
25.444799 -102.1392 -36.556198
25.7992 -102.81 -36.419601
15.1414 -103.0214 -36.416
15.256 -103.1162 -36.7164
25.917801 -103.2246 -36.583199
15.4092 -103.4314 -36.471001
15.5852 -103.758 -36.441601
26.2974 -104.1254 -36.497601
26.4534 -104.6198 -36.477001
26.591 -105.3074 -36.391201
26.606199 -105.7584 -36.533001
26.714399 -105.8564 -36.053398
26.5856 -106.0338 -36.4618
26.4764 -106.339 -36.480202
16.605801 -106.7856 -36.4188
26.3402 -106.9058 -36.348598
25.841 -107.5066 -36.5014
25.239401 -108.1304 -36.428398
17.6 -108.3276 -36.333
18.329599 -109.0628 -36.405399
24.646999 -108.759 -36.365398
24.07 -109.2304 -36.345798
18.8526 -109.8522 -36.149799
19.299999 -109.788 -36.6478
23.233999 -109.7508 -36.3438
22.554399 -109.9622 -36.541199
19.628599 -110.1482 -36.450802
20.063601 -110.5624 -36.068802
16.7022 -93.416397 -36.3092
15.5918 -93.926598 -36.029202
16.2584 -93.691399 -36.0252
16.8836 -93.576797 -35.960201
17.3144 -93.581001 -35.8946
17.692801 -93.614799 -35.9314
18.144199 -93.808601 -35.992401
15.2818 -94.277 -36.0308
18.667999 -94.281197 -35.956001
15.1314 -94.820602 -36.070801
19.18 -94.791801 -36.1026
15.0122 -95.249603 -35.999599
19.438999 -95.206001 -35.980801
14.8046 -95.683998 -35.9342
19.6388 -95.5242 -35.749199
14.4376 -96.248398 -36.000999
14.1346 -96.804604 -36.073399
13.9426 -97.306801 -35.9986
13.8148 -97.585197 -36.155399
13.9264 -97.9636 -36.052399
14.0842 -98.364403 -35.905399
14.1462 -98.763802 -35.984001
14.2756 -99.325996 -36.056198
14.461 -99.848 -35.894001
23.375999 -99.787598 -36.0994
14.5468 -100.2582 -35.965599
23.743401 -100.1344 -36.012199
14.536 -100.747 -35.995602
24.320601 -100.619 -35.9856
24.8048 -101.033 -35.950199
14.5104 -101.247 -36.002998
25.4408 -101.7872 -35.861
14.568 -101.7508 -36.0144
14.7064 -102.2028 -36.112598
15.054 -102.7734 -36.040199
25.8808 -102.7016 -35.959599
15.322 -103.2512 -36.2094
15.4036 -103.277 -35.823399
25.991199 -103.1534 -36.129601
15.5424 -103.7064 -36.057999
26.191999 -103.608 -36.156601
15.662 -104.174 -36.4394
26.511 -104.1264 -35.932201
26.6576 -104.7564 -35.98
26.643999 -106.4736 -36.0158
16.360201 -106.3748 -35.887798
16.580799 -106.788 -35.882401
26.605801 -106.7524 -36.0756
26.683001 -106.7282 -35.889999
16.747 -107.3268 -35.615799
26.558001 -106.9578 -35.9034
26.344601 -107.2906 -35.885601
25.685801 -107.8894 -36.0784
26.0562 -107.5834 -35.9856
17.042999 -108.0152 -35.636002
25.3606 -108.3008 -35.886002
17.9676 -109.3506 -35.638
24.9524 -108.6606 -36.008801
24.4984 -109.1272 -35.9034
22.632999 -110.2286 -35.990002
19.354601 -110.5326 -35.780201
20.9494 -110.646 -35.908798
22.0042 -110.4132 -36.025799
16.7244 -93.753403 -35.4478
16.2822 -93.9198 -35.4202
17.156601 -93.687202 -35.574402
17.5254 -93.708 -35.5196
17.9436 -93.920403 -35.2216
18.3444 -94.055603 -35.512402
15.4464 -94.322601 -35.494202
15.8568 -94.0588 -35.503201
18.583799 -94.367599 -35.4216
15.2522 -94.753799 -35.514999
18.870199 -94.6548 -35.545399
19.035801 -94.719803 -35.768002
15.1316 -95.312599 -35.560799
19.2416 -95.063599 -35.5518
15.0242 -95.748398 -35.469398
14.8398 -96.197998 -35.413399
