# .PCD v0.7 - Point Cloud Data file format
VERSION 0.7
FIELDS x y z rgba
SIZE 4 4 4 4
TYPE F F F U
COUNT 1 1 1 1
WIDTH 1205
HEIGHT 1
VIEWPOINT 0 0 0 1 0 0 0
POINTS 1205
DATA ascii
17.9531 -38.1021 -18.632401 4278190080
24.447001 -38.071201 -18.819099 4278190080
24.4622 -38.7789 -18.697701 4278190080
24.476601 -39.308899 -18.5152 4278190080
24.4459 -39.593498 -18.4186 4278190080
19.5116 -39.8456 -18.726999 4278190080
19.762501 -40.140099 -18.618999 4278190080
19.881901 -40.6502 -18.178499 4278190080
20.457399 -41.0518 -18.265699 4278190080
20.883699 -41.061199 -18.57 4278190080
21.289301 -41.386501 -18.470699 4278190080
23.8706 -40.9977 -18.679199 4278190080
23.3757 -41.430901 -18.8603 4278190080
23.600201 -41.3181 -18.754299 4278190080
22.2236 -41.536499 -18.789 4278190080
21.966101 -41.513802 -18.753 4278190080
23.106199 -41.5499 -18.7537 4278190080
23.385599 -41.5084 -18.5548 4278190080
22.029301 -30.181601 -18.6119 4278190080
22.685699 -30.350401 -18.627001 4278190080
22.965599 -30.5445 -18.532499 4278190080
21.155899 -30.7083 -18.191799 4278190080
20.305 -31.3375 -18.058001 4278190080
23.619699 -31.0797 -18.391899 4278190080
24.017 -31.6807 -18.149 4278190080
20.117599 -31.615101 -18.4965 4278190080
24.524401 -31.993401 -18.4515 4278190080
24.3967 -32.0107 -18.292101 4278190080
25.110201 -32.368801 -18.447399 4278190080
19.971399 -32.980202 -18.5292 4278190080
20.130501 -33.082298 -18.659 4278190080
19.987499 -33.214199 -18.51 4278190080
26.067801 -33.042099 -18.3473 4278190080
26.2488 -33.2029 -18.374599 4278190080
20.146 -33.3652 -18.6045 4278190080
19.9837 -33.430302 -18.440701 4278190080
20.1231 -33.7514 -18.511299 4278190080
20.370701 -33.815498 -18.6486 4278190080
20.309799 -34.060799 -18.6577 4278190080
20.0089 -34.111401 -18.529301 4278190080
20.6238 -34.131401 -18.7388 4278190080
26.869699 -33.879101 -18.577801 4278190080
26.951401 -34.153301 -18.4589 4278190080
19.709299 -34.260899 -18.465099 4278190080
27.073299 -34.494999 -18.437201 4278190080
19.293501 -34.3456 -18.295401 4278190080
27.168501 -35.0914 -18.3503 4278190080
27.251801 -35.560398 -18.729 4278190080
27.1735 -35.762501 -18.499599 4278190080
27.085899 -35.905399 -18.142401 4278190080
27.0646 -36.197701 -18.469801 4278190080
16.8505 -36.591702 -18.530399 4278190080
26.557899 -36.859402 -18.545799 4278190080
26.366301 -36.932098 -18.639099 4278190080
26.160299 -37.147701 -18.4842 4278190080
26.378799 -37.021099 -18.496201 4278190080
24.939899 -37.652802 -18.5881 4278190080
25.474199 -37.399799 -18.5578 4278190080
25.1868 -37.563301 -18.5387 4278190080
24.742901 -38.1455 -18.5403 4278190080
17.818899 -38.042301 -18.424601 4278190080
18.055799 -38.4048 -18.4743 4278190080
18.827101 -39.386501 -18.406 4278190080
19.157801 -40.0588 -18.0327 4278190080
24.305799 -40.627701 -18.1551 4278190080
23.829 -41.2617 -18.321301 4278190080
21.858601 -41.583599 -18.540701 4278190080
22.570101 -41.686501 -18.5215 4278190080
23.092899 -41.640099 -18.4802 4278190080
21.6803 -30.364 -18.291 4278190080
22.038601 -30.344999 -18.3167 4278190080
22.5257 -30.510201 -18.273899 4278190080
22.881901 -30.6761 -18.26 4278190080
23.202999 -30.8479 -18.2887 4278190080
19.9821 -31.805901 -18.237301 4278190080
24.2512 -31.898001 -18.238501 4278190080
24.608601 -32.1716 -18.2854 4278190080
19.883699 -32.674099 -18.331499 4278190080
24.851299 -32.339199 -18.2854 4278190080
25.408899 -32.702702 -18.238199 4278190080
19.8932 -33.247501 -18.3346 4278190080
19.882401 -33.623199 -18.2467 4278190080
19.7451 -34.039299 -18.2682 4278190080
26.7682 -33.979698 -18.3256 4278190080
19.479799 -34.266602 -18.323299 4278190080
19.2994 -34.276299 -18.1415 4278190080
19.4496 -34.203201 -18.1821 4278190080
26.851801 -34.351398 -18.113501 4278190080
27.004 -34.804901 -18.047899 4278190080
17.8144 -34.741001 -17.608601 4278190080
17.405701 -34.929199 -18.4533 4278190080
17.277599 -35.055599 -18.2621 4278190080
17.1451 -35.330101 -18.1052 4278190080
27.205099 -35.525299 -18.4198 4278190080
16.901899 -35.751301 -18.1681 4278190080
16.8218 -36.137199 -18.2666 4278190080
16.8174 -35.897598 -17.416599 4278190080
27.0007 -36.437 -18.2363 4278190080
16.723 -36.6782 -18.074499 4278190080
26.7577 -36.761299 -18.330299 4278190080
26.4149 -37.068501 -18.3253 4278190080
16.828501 -37.146 -18.1984 4278190080
17.003599 -37.314701 -18.366699 4278190080
25.583 -37.432701 -18.4813 4278190080
26.126499 -37.3652 -18.147699 4278190080
25.873899 -37.444401 -18.3125 4278190080
17.623699 -37.943802 -18.3244 4278190080
25.4249 -37.6446 -18.384701 4278190080
25.6574 -37.520802 -18.371599 4278190080
25.5749 -37.669399 -18.285601 4278190080
24.956301 -37.851501 -18.4576 4278190080
25.1485 -37.8615 -18.378799 4278190080
25.3267 -37.8946 -18.2962 4278190080
25.5077 -37.807598 -18.2346 4278190080
24.9907 -38.122898 -18.355801 4278190080
25.1731 -38.073799 -18.2815 4278190080
25.083599 -38.259201 -18.271799 4278190080
25.3832 -38.038799 -18.1408 4278190080
17.828501 -38.2668 -18.2707 4278190080
25.0091 -38.555401 -18.241699 4278190080
17.914801 -38.608799 -18.112101 4278190080
24.780199 -38.742699 -18.368999 4278190080
18.4128 -38.973598 -18.3423 4278190080
24.638901 -38.704102 -18.484699 4278190080
24.6373 -39.024399 -18.4011 4278190080
24.8447 -39.0056 -18.239901 4278190080
24.690201 -39.343201 -18.1919 4278190080
24.5201 -39.657101 -18.185801 4278190080
24.4144 -39.9636 -18.264799 4278190080
20.805901 -41.663502 -17.875799 4278190080
21.888599 -41.7957 -18.2579 4278190080
23.245501 -41.692501 -18.258101 4278190080
22.977301 -41.798901 -18.200701 4278190080
23.4699 -41.621498 -18.193001 4278190080
21.502199 -30.4569 -18.1264 4278190080
21.816799 -30.519199 -17.899 4278190080
22.1782 -30.5378 -18.011999 4278190080
22.4284 -30.711901 -17.8927 4278190080
22.884001 -30.8713 -17.968599 4278190080
20.810101 -31.026199 -17.419701 4278190080
23.4648 -31.2486 -18.0208 4278190080
20.0341 -31.4454 -17.5588 4278190080
19.813601 -32.212601 -18.128201 4278190080
19.7295 -32.290298 -17.9335 4278190080
19.838699 -31.772499 -17.912399 4278190080
19.7544 -32.745399 -18.0418 4278190080
24.3743 -32.096298 -18.096701 4278190080
24.6521 -32.370201 -18.0182 4278190080
24.9757 -32.584599 -18.0452 4278190080
25.782801 -33.054798 -18.067301 4278190080
19.764999 -33.316898 -18.0301 4278190080
26.079599 -33.2892 -18.0324 4278190080
26.3218 -33.601299 -17.9576 4278190080
19.631399 -33.799801 -17.9065 4278190080
26.5539 -34.007801 -17.933201 4278190080
19.375 -34.116299 -17.8892 4278190080
17.540899 -34.857101 -18.005899 4278190080
17.3846 -34.9361 -18.040701 4278190080
26.9538 -35.329899 -17.6812 4278190080
16.589701 -36.544998 -17.745701 4278190080
16.6222 -36.873798 -17.924999 4278190080
26.8335 -36.788502 -18.016001 4278190080
26.4802 -37.1558 -17.9944 4278190080
16.8955 -37.397301 -18.0973 4278190080
16.996901 -37.574001 -18.055099 4278190080
25.6768 -37.673901 -18.207001 4278190080
25.8123 -37.679699 -18.039101 4278190080
17.1702 -37.812 -18.041 4278190080
25.590799 -37.864101 -18.083401 4278190080
17.3575 -37.964001 -18.086901 4278190080
25.2006 -38.2803 -18.1752 4278190080
25.3445 -38.253899 -18.006599 4278190080
17.4116 -38.285801 -17.8486 4278190080
25.168501 -38.473499 -18.1367 4278190080
25.252001 -38.4174 -18.0422 4278190080
25.180799 -38.661999 -18.027901 4278190080
17.8929 -39.022598 -17.6803 4278190080
25.0469 -39.036098 -18.002001 4278190080
18.433701 -39.448502 -17.834801 4278190080
24.700199 -39.639099 -17.9636 4278190080
24.569 -39.915298 -17.978399 4278190080
24.488701 -40.252899 -17.9744 4278190080
21.830999 -41.9571 -18.0263 4278190080
21.5632 -41.8806 -18.0245 4278190080
22.1514 -41.893398 -18.1754 4278190080
22.5802 -41.9123 -18.127199 4278190080
23.361799 -41.810699 -17.980801 4278190080
22.2211 -42.024399 -17.9674 4278190080
21.506701 -30.5305 -17.8972 4278190080
22.160999 -30.7118 -17.7365 4278190080
22.3601 -30.817699 -17.6961 4278190080
22.5686 -30.9447 -17.618999 4278190080
23.2327 -31.2367 -17.7528 4278190080
20.363199 -31.2644 -16.930401 4278190080
19.682199 -32.0653 -17.591101 4278190080
19.810801 -31.581499 -17.5201 4278190080
23.777 -31.806 -17.6714 4278190080
19.637899 -32.936501 -17.744301 4278190080
24.317101 -32.198502 -17.8433 4278190080
24.2729 -32.399799 -17.5397 4278190080
24.659901 -32.556198 -17.7449 4278190080
25.015301 -32.877201 -17.6663 4278190080
25.387899 -33.0453 -17.751801 4278190080
25.589001 -33.289299 -17.5896 4278190080
25.872299 -33.388802 -17.702101 4278190080
19.493999 -33.541199 -17.5858 4278190080
26.1262 -33.6684 -17.5945 4278190080
26.279699 -33.730999 -17.673401 4278190080
26.3328 -34.002899 -17.4837 4278190080
19.1675 -34.2715 -17.891899 4278190080
26.628799 -34.396301 -17.673401 4278190080
18.9624 -34.313099 -17.724001 4278190080
26.8097 -34.708302 -17.7379 4278190080
17.367399 -35.003799 -17.8843 4278190080
26.916 -34.9692 -17.7542 4278190080
26.9625 -35.819 -17.531601 4278190080
16.582701 -36.254601 -17.334 4278190080
26.9363 -36.560398 -17.8596 4278190080
16.550699 -36.874199 -17.7714 4278190080
16.491301 -36.707298 -17.622801 4278190080
26.6868 -37.018398 -17.768801 4278190080
16.648199 -37.227299 -17.7997 4278190080
16.8333 -37.43 -17.9484 4278190080
26.423401 -37.338299 -17.702499 4278190080
26.054199 -37.691799 -17.689699 4278190080
16.813801 -37.652802 -17.7376 4278190080
25.5748 -38.1064 -17.8449 4278190080
17.0105 -37.816299 -17.8258 4278190080
17.151699 -38.025398 -17.807199 4278190080
25.3409 -38.505501 -17.872601 4278190080
17.2554 -38.723099 -17.358601 4278190080
25.258301 -38.837299 -17.8342 4278190080
17.955299 -39.469601 -17.285299 4278190080
25.310499 -39.105301 -17.6236 4278190080
25.0483 -39.478401 -17.693501 4278190080
18.482901 -39.93 -17.365101 4278190080
24.8671 -39.971298 -17.594299 4278190080
24.639099 -40.215801 -17.7743 4278190080
24.5753 -40.574001 -17.7614 4278190080
19.927099 -41.566601 -17.319 4278190080
20.447701 -41.723202 -17.559299 4278190080
24.3612 -41.308201 -17.592899 4278190080
23.949499 -41.589802 -17.7605 4278190080
23.656 -41.8353 -17.740299 4278190080
23.1716 -41.869301 -17.991501 4278190080
23.3158 -42.081799 -17.6341 4278190080
22.1406 -42.189899 -17.701599 4278190080
22.796801 -42.0513 -17.844101 4278190080
21.495399 -30.688801 -17.6089 4278190080
21.149799 -30.797001 -17.570999 4278190080
21.919399 -30.7899 -17.4867 4278190080
22.266199 -30.8943 -17.509001 4278190080
22.908899 -31.0923 -17.627899 4278190080
23.2215 -31.407801 -17.4951 4278190080
19.6985 -31.6987 -17.426701 4278190080
23.532801 -31.8388 -17.2759 4278190080
19.5065 -32.802502 -17.321501 4278190080
24.5445 -32.723598 -17.4025 4278190080
19.412901 -33.299599 -17.3696 4278190080
24.808001 -33.184898 -17.066099 4278190080
25.184 -33.179401 -17.4242 4278190080
25.380699 -33.210701 -17.524401 4278190080
19.2388 -33.920799 -17.4242 4278190080
25.7332 -33.6884 -17.2111 4278190080
19.1332 -34.166599 -17.581301 4278190080
26.4785 -34.227699 -17.5382 4278190080
26.5273 -34.4128 -17.437 4278190080
18.333 -34.520699 -17.5012 4278190080
18.684 -34.400902 -17.5124 4278190080
26.6064 -34.805099 -17.226101 4278190080
26.7957 -35.015999 -17.5259 4278190080
17.475401 -34.970299 -17.5931 4278190080
26.749399 -35.242298 -17.278 4278190080
26.8748 -36.3596 -17.4417 4278190080
16.447701 -36.5509 -17.1667 4278190080
26.6604 -37.1371 -17.167101 4278190080
26.768 -36.858898 -17.572701 4278190080
16.4571 -37.016499 -17.4424 4278190080
16.471701 -37.518299 -17.378099 4278190080
26.573 -37.232498 -17.516399 4278190080
16.6075 -37.619301 -17.559401 4278190080
16.509399 -37.773602 -17.3428 4278190080
26.357201 -37.527302 -17.4706 4278190080
16.7073 -37.9739 -17.4009 4278190080
16.926001 -37.9235 -17.6402 4278190080
17.013201 -38.1236 -17.589199 4278190080
25.4825 -38.66 -17.5895 4278190080
24.788601 -40.4534 -17.504801 4278190080
19.5107 -40.916199 -17.496201 4278190080
24.5112 -40.919399 -17.706699 4278190080
24.679399 -40.8531 -17.516399 4278190080
24.572001 -41.070599 -17.5457 4278190080
24.106701 -41.682701 -17.556299 4278190080
24.2812 -41.741299 -17.352501 4278190080
23.6187 -42.198898 -17.322001 4278190080
23.9188 -41.854401 -17.5315 4278190080
24.083099 -41.9231 -17.359501 4278190080
21.2017 -42.0541 -17.695299 4278190080
21.755899 -42.376301 -17.4618 4278190080
22.499001 -42.562099 -17.255501 4278190080
22.9706 -42.388199 -17.3699 4278190080
21.633301 -30.8435 -17.288099 4278190080
20.941299 -31.0168 -17.1609 4278190080
21.237301 -30.914101 -17.166401 4278190080
21.880899 -30.940201 -17.1777 4278190080
22.118601 -30.9585 -17.2882 4278190080
22.380699 -31.0924 -17.239201 4278190080
19.7223 -31.6353 -17.162001 4278190080
19.8657 -31.5005 -17.131901 4278190080
22.7987 -31.2572 -17.3155 4278190080
23.141001 -31.4856 -17.2887 4278190080
19.654699 -31.8295 -17.253201 4278190080
19.620899 -32.135601 -17.0161 4278190080
23.989799 -32.296902 -17.317101 4278190080
19.530701 -32.505402 -17.0914 4278190080
24.245001 -32.552898 -17.3241 4278190080
19.447599 -32.783001 -17.122 4278190080
24.241199 -32.662498 -17.1269 4278190080
25.129 -33.3181 -17.2033 4278190080
25.3703 -33.399399 -17.2798 4278190080
19.083599 -33.504601 -16.8846 4278190080
19.0093 -34.155602 -17.333 4278190080
18.819401 -34.276001 -17.234699 4278190080
26.447701 -34.354801 -17.3113 4278190080
17.3689 -35.028702 -16.817801 4278190080
26.7209 -35.862301 -16.627399 4278190080
26.701099 -36.779099 -16.743299 4278190080
16.3703 -37.425598 -17.078199 4278190080
26.5196 -37.4478 -17.281601 4278190080
26.365101 -37.736099 -17.1555 4278190080
26.169399 -37.818501 -17.316099 4278190080
25.7239 -38.249401 -17.482599 4278190080
25.930599 -38.313 -17.114901 4278190080
16.965099 -38.351601 -17.3808 4278190080
25.689501 -38.635502 -17.2791 4278190080
25.5769 -39.028198 -17.2845 4278190080
25.477501 -39.445702 -17.177999 4278190080
18.0844 -39.850399 -17.059999 4278190080
24.935301 -40.2384 -17.3827 4278190080
25.0959 -40.162498 -17.205601 4278190080
18.956499 -40.533298 -17.257401 4278190080
25.017799 -40.472301 -17.167101 4278190080
24.849899 -40.835999 -17.236799 4278190080
19.2819 -40.959999 -17.183599 4278190080
19.4923 -41.117401 -17.2486 4278190080
24.670601 -41.095501 -17.372 4278190080
19.5875 -41.287998 -17.2225 4278190080
20.624701 -42.0821 -17.369699 4278190080
23.428101 -42.362202 -17.223499 4278190080
20.892401 -42.319599 -17.3277 4278190080
20.616699 -42.370201 -17.1493 4278190080
21.458401 -42.771801 -17.0264 4278190080
20.8055 -42.901299 -16.777599 4278190080
21.6469 -30.950399 -17.026199 4278190080
22.0916 -31.0704 -17.0345 4278190080
20.9974 -31.048401 -16.8636 4278190080
21.8748 -31.046101 -16.923599 4278190080
22.254999 -31.180599 -16.9536 4278190080
22.500099 -31.346701 -16.9219 4278190080
23.052601 -31.6287 -17.0119 4278190080
23.5035 -31.998301 -16.979 4278190080
19.4697 -32.4366 -16.899 4278190080
19.5268 -32.2812 -16.6723 4278190080
23.849899 -32.3302 -16.997101 4278190080
19.4408 -32.600601 -16.9767 4278190080
19.2969 -32.972599 -16.981899 4278190080
24.1959 -32.826698 -16.7852 4278190080
19.2596 -33.2085 -17.0653 4278190080
25.1604 -33.437302 -17.0569 4278190080
25.368 -33.6063 -16.999399 4278190080
18.9062 -34.025002 -16.979601 4278190080
26.101999 -34.0103 -17.169001 4278190080
18.5287 -34.307499 -16.861099 4278190080
26.3139 -34.424999 -16.989401 4278190080
26.530701 -34.779598 -16.9095 4278190080
16.5277 -36.179199 -16.581499 4278190080
16.3498 -36.967602 -17.0368 4278190080
26.538099 -37.927101 -16.215 4278190080
26.516199 -37.644199 -16.9501 4278190080
16.392099 -37.931702 -16.947701 4278190080
26.180901 -38.007999 -17.030701 4278190080
16.652901 -38.369598 -17.054701 4278190080
16.865499 -38.585098 -17.132401 4278190080
16.653099 -38.648602 -16.8815 4278190080
25.7507 -38.8755 -17.067499 4278190080
16.8416 -38.774101 -16.981701 4278190080
17.343201 -39.201698 -16.993299 4278190080
17.6124 -39.470299 -16.9587 4278190080
25.683399 -39.2029 -17.0093 4278190080
17.8029 -39.684502 -16.978901 4278190080
17.663401 -39.6203 -16.903099 4278190080
25.2854 -39.930599 -17.098 4278190080
18.3543 -40.247299 -16.930901 4278190080
24.9923 -40.706799 -17.0797 4278190080
25.137199 -40.6735 -16.8834 4278190080
18.6835 -40.5993 -16.913099 4278190080
19.0058 -40.814999 -17.0478 4278190080
18.7715 -40.826698 -16.844299 4278190080
24.9811 -40.9422 -16.9536 4278190080
18.992701 -41.056099 -16.8934 4278190080
19.3556 -41.203201 -17.073 4278190080
24.796499 -41.273899 -16.982201 4278190080
24.5403 -41.685299 -17.0182 4278190080
19.668301 -41.8848 -16.847401 4278190080
19.4981 -41.698399 -16.865999 4278190080
24.2096 -42.058498 -17.029699 4278190080
20.369101 -42.088299 -17.197901 4278190080
20.148399 -42.1329 -17.0273 4278190080
23.876301 -42.108398 -17.2764 4278190080
20.3624 -42.450699 -16.9335 4278190080
23.759701 -42.3969 -16.934299 4278190080
22.2344 -42.831001 -16.9806 4278190080
23.007099 -42.674999 -17.046801 4278190080
23.3279 -42.596802 -16.9821 4278190080
22.773701 -42.826 -16.926399 4278190080
21.271099 -31.006901 -16.7623 4278190080
21.493799 -30.9771 -16.8437 4278190080
21.7321 -31.0478 -16.7785 4278190080
20.878901 -31.1945 -16.317499 4278190080
21.982599 -31.2155 -16.6479 4278190080
19.7649 -31.6413 -16.8326 4278190080
19.6658 -31.8144 -16.939699 4278190080
22.7148 -31.602301 -16.6996 4278190080
23.015301 -31.7764 -16.704599 4278190080
23.2953 -31.939899 -16.7868 4278190080
19.3421 -32.5359 -16.565001 4278190080
23.614201 -32.251701 -16.708599 4278190080
23.866899 -32.479801 -16.746201 4278190080
19.3438 -32.770901 -16.896999 4278190080
19.2006 -32.821899 -16.6485 4278190080
19.082001 -33.108799 -16.664 4278190080
24.5928 -33.334702 -16.670099 4278190080
25.1366 -33.570702 -16.860201 4278190080
24.982201 -33.687698 -16.5889 4278190080
25.4139 -33.802502 -16.7843 4278190080
25.8463 -34.104 -16.812099 4278190080
18.7665 -34.030499 -16.6682 4278190080
18.646601 -34.111301 -16.592899 4278190080
17.892799 -34.517601 -16.5807 4278190080
25.9286 -34.564301 -16.4049 4278190080
26.4314 -34.8344 -16.674 4278190080
26.588699 -35.1591 -16.6506 4278190080
17.0467 -35.3437 -16.2724 4278190080
16.3251 -36.519402 -16.398899 4278190080
16.2985 -36.739601 -16.7363 4278190080
16.2521 -37.038799 -16.787201 4278190080
16.296 -37.280399 -16.883699 4278190080
16.219 -37.3368 -16.7124 4278190080
16.2903 -37.590302 -16.816799 4278190080
26.135 -38.225399 -16.7743 4278190080
26.3508 -37.9706 -16.781799 4278190080
25.9825 -38.524101 -16.7192 4278190080
16.363899 -38.422501 -16.6196 4278190080
16.466499 -38.7187 -16.6119 4278190080
25.8465 -38.9491 -16.780001 4278190080
16.631201 -38.821602 -16.739401 4278190080
16.823299 -39.000999 -16.765499 4278190080
17.351 -39.471001 -16.731199 4278190080
25.7204 -39.449799 -16.7724 4278190080
17.5429 -39.588799 -16.793301 4278190080
17.6178 -39.760201 -16.757601 4278190080
25.6112 -39.888599 -16.6712 4278190080
17.7782 -40.096699 -16.6306 4278190080
18.3447 -40.471401 -16.7243 4278190080
25.256599 -40.375599 -16.8743 4278190080
18.4429 -40.699001 -16.658501 4278190080
24.9324 -41.151199 -16.8825 4278190080
25.022301 -41.0821 -16.7736 4278190080
18.9242 -41.215801 -16.771 4278190080
19.118299 -41.320202 -16.847799 4278190080
18.885099 -41.346802 -16.669001 4278190080
19.4391 -41.466702 -16.985901 4278190080
24.958401 -41.225899 -16.744101 4278190080
19.081699 -41.695301 -16.5667 4278190080
19.8983 -42.089298 -16.8811 4278190080
24.5301 -42.000401 -16.610701 4278190080
24.2061 -42.264801 -16.681601 4278190080
20.075899 -42.3311 -16.8472 4278190080
19.8641 -42.309502 -16.7145 4278190080
20.002399 -42.5723 -16.612 4278190080
23.4942 -42.683998 -16.7132 4278190080
20.3859 -42.8232 -16.6504 4278190080
22.7356 -43.204399 -16.4674 4278190080
23.1534 -42.890499 -16.6919 4278190080
21.2323 -31.104099 -16.469101 4278190080
21.549801 -31.0746 -16.6 4278190080
19.965 -31.510401 -16.745701 4278190080
22.0993 -31.418301 -16.3934 4278190080
22.3678 -31.481701 -16.582001 4278190080
22.315599 -31.574301 -16.3678 4278190080
19.731701 -31.815701 -16.6236 4278190080
22.5945 -31.737 -16.372499 4278190080
22.8811 -31.812799 -16.4939 4278190080
23.2213 -32.059601 -16.4818 4278190080
23.520399 -32.3479 -16.3909 4278190080
23.879 -32.6693 -16.447701 4278190080
19.1807 -32.691299 -16.381599 4278190080
18.9849 -33.236301 -16.5826 4278190080
24.342199 -33.2164 -16.4515 4278190080
24.6747 -33.577 -16.4545 4278190080
18.8769 -33.7729 -16.608601 4278190080
18.743601 -33.694599 -16.268 4278190080
25.421101 -34.0415 -16.4751 4278190080
18.444201 -34.081299 -16.3846 4278190080
18.1838 -34.2514 -16.3918 4278190080
26.061199 -34.939899 -16.2194 4278190080
26.326599 -35.0327 -16.3636 4278190080
26.5215 -35.0872 -16.5215 4278190080
17.2609 -34.992298 -16.147499 4278190080
16.679399 -35.822201 -16.015301 4278190080
16.2213 -36.7808 -16.4561 4278190080
16.1693 -37.171101 -16.5455 4278190080
16.2036 -37.640301 -16.6402 4278190080
26.288099 -38.2034 -16.526501 4278190080
25.9389 -38.7481 -16.632799 4278190080
26.0541 -38.644901 -16.495399 4278190080
25.980801 -38.946701 -16.4881 4278190080
25.9112 -39.342899 -16.4627 4278190080
16.5481 -39.221699 -16.353001 4278190080
16.884899 -39.307098 -16.6057 4278190080
16.702 -39.449299 -16.3759 4278190080
17.104401 -39.4216 -16.6465 4278190080
16.8862 -39.560799 -16.440001 4278190080
17.1572 -39.668201 -16.486401 4278190080
17.416901 -39.664902 -16.638201 4278190080
25.799999 -39.697399 -16.497999 4278190080
18.0996 -40.344601 -16.6607 4278190080
17.908199 -40.410599 -16.504499 4278190080
25.4513 -40.369301 -16.561199 4278190080
18.131701 -40.560799 -16.540001 4278190080
25.2901 -40.728001 -16.5821 4278190080
18.5632 -40.946899 -16.621 4278190080
25.1313 -40.909199 -16.7293 4278190080
18.7143 -41.170502 -16.6257 4278190080
25.1171 -41.123299 -16.498501 4278190080
18.6444 -41.3937 -16.439199 4278190080
24.9484 -41.371799 -16.545799 4278190080
24.7855 -41.688301 -16.4762 4278190080
19.4226 -41.878399 -16.678301 4278190080
19.3867 -42.084202 -16.5159 4278190080
19.632601 -42.1035 -16.674999 4278190080
24.437799 -42.182098 -16.5229 4278190080
19.6709 -42.319698 -16.564199 4278190080
23.8545 -42.563599 -16.5198 4278190080
24.283001 -42.338699 -16.441601 4278190080
23.452299 -42.878899 -16.458799 4278190080
20.525499 -43.0816 -16.5152 4278190080
21.403099 -43.631802 -16.162201 4278190080
22.121599 -43.320202 -16.471001 4278190080
20.143801 -31.4461 -16.3137 4278190080
20.4391 -31.2773 -16.2097 4278190080
21.32 -31.204201 -16.184401 4278190080
21.557699 -31.1705 -16.371201 4278190080
21.745501 -31.321199 -16.209299 4278190080
19.8804 -31.701599 -16.322201 4278190080
22.0854 -31.5613 -16.1359 4278190080
22.3622 -31.750299 -16.1371 4278190080
22.902 -32.021099 -16.191099 4278190080
19.702101 -31.9835 -16.2927 4278190080
23.211201 -32.267502 -16.1168 4278190080
19.174299 -32.629501 -15.932 4278190080
23.532301 -32.525799 -16.0797 4278190080
23.832701 -32.759899 -16.1675 4278190080
19.072599 -32.865398 -16.3139 4278190080
24.1385 -33.208099 -16.010799 4278190080
18.9443 -33.198898 -16.287399 4278190080
18.8936 -33.540901 -16.459499 4278190080
24.573799 -33.586601 -16.2421 4278190080
24.829599 -33.7925 -16.2943 4278190080
25.063999 -33.943901 -16.2619 4278190080
17.9736 -34.125702 -16.0215 4278190080
18.210899 -34.0513 -16.151501 4278190080
25.3253 -34.232201 -16.050501 4278190080
25.8081 -35.031101 -15.7409 4278190080
26.132999 -35.190701 -16.030899 4278190080
26.515301 -35.251099 -16.3421 4278190080
26.692499 -36.977402 -15.8728 4278190080
16.1075 -37.119099 -16.221701 4278190080
16.1513 -37.8293 -16.4606 4278190080
26.131599 -38.400398 -16.553499 4278190080
16.231199 -38.642101 -16.333099 4278190080
26.259501 -38.508099 -16.2985 4278190080
16.377701 -38.915298 -16.375 4278190080
26.153299 -38.8727 -16.2561 4278190080
26.091101 -39.153599 -16.239799 4278190080
16.4603 -39.4916 -16.057699 4278190080
26.067499 -39.4277 -16.1367 4278190080
16.691601 -39.645599 -16.2176 4278190080
25.943399 -39.711201 -16.2346 4278190080
16.8297 -39.862999 -16.137899 4278190080
17.1633 -39.9189 -16.3125 4278190080
17.4118 -39.871498 -16.510599 4278190080
25.802401 -39.964401 -16.316999 4278190080
17.338301 -40.1185 -16.285801 4278190080
17.662399 -40.4436 -16.3048 4278190080
25.657301 -40.270599 -16.277901 4278190080
17.865999 -40.637501 -16.339701 4278190080
17.5791 -40.663101 -16.1157 4278190080
25.4049 -40.681801 -16.3974 4278190080
25.4981 -40.703201 -16.1371 4278190080
18.163 -40.856602 -16.3999 4278190080
17.7064 -40.926899 -16.066099 4278190080
25.309799 -40.924702 -16.3109 4278190080
18.0763 -41.162498 -16.181801 4278190080
18.4002 -41.1357 -16.4062 4278190080
25.188499 -41.169201 -16.2318 4278190080
18.3598 -41.361301 -16.2379 4278190080
25.0492 -41.489799 -16.084999 4278190080
18.523399 -41.717499 -16.117001 4278190080
24.6763 -41.970699 -16.300501 4278190080
19.1861 -42.1339 -16.325899 4278190080
24.5471 -42.1912 -16.270599 4278190080
19.517 -42.478001 -16.329201 4278190080
24.1127 -42.496201 -16.3521 4278190080
23.912399 -42.660999 -16.301201 4278190080
24.3498 -42.506302 -16.1241 4278190080
19.857401 -42.879601 -16.2661 4278190080
20.154699 -42.897999 -16.450199 4278190080
23.650299 -42.9044 -16.2404 4278190080
20.325399 -43.0578 -16.420601 4278190080
20.1334 -43.082199 -16.2799 4278190080
23.3113 -43.246101 -16.0977 4278190080
20.3424 -43.304699 -16.221901 4278190080
20.6436 -43.283798 -16.4088 4278190080
20.8396 -43.462898 -16.3027 4278190080
20.2495 -31.4373 -15.9854 4278190080
20.445999 -31.3263 -15.9392 4278190080
20.632999 -31.279499 -15.9749 4278190080
21.191299 -31.244801 -16.034201 4278190080
21.4664 -31.339701 -15.9683 4278190080
19.982401 -31.6845 -16.0264 4278190080
21.810699 -31.519199 -15.9339 4278190080
22.1672 -31.9426 -15.6485 4278190080
22.5875 -31.986401 -15.973 4278190080
19.0026 -32.8871 -15.9685 4278190080
23.7612 -32.7808 -15.9661 4278190080
23.5518 -32.6334 -15.8699 4278190080
18.920099 -32.943699 -15.2928 4278190080
24.8048 -33.901699 -15.9549 4278190080
18.3568 -33.687302 -15.7889 4278190080
17.4867 -34.6581 -16.128 4278190080
17.5777 -34.3857 -15.8461 4278190080
25.586 -34.600101 -15.8611 4278190080
17.3442 -34.765099 -15.9824 4278190080
17.225 -34.8386 -15.7777 4278190080
17.0473 -35.161999 -15.7854 4278190080
26.3874 -35.316601 -16.114599 4278190080
16.9034 -35.483501 -15.8898 4278190080
26.542999 -35.525002 -16.132099 4278190080
16.392099 -36.305401 -16.076 4278190080
15.973 -38.023102 -16.089199 4278190080
15.9672 -37.159401 -15.9514 4278190080
26.6754 -37.807201 -15.7328 4278190080
26.683001 -38.283901 -15.4816 4278190080
15.9821 -38.7351 -15.9787 4278190080
26.3046 -38.885399 -16.002001 4278190080
16.003099 -39.165401 -15.7888 4278190080
26.2283 -39.080399 -16.045601 4278190080
26.1882 -39.264702 -16.002501 4278190080
26.0676 -39.680801 -15.9933 4278190080
16.5133 -39.775501 -15.9133 4278190080
25.9072 -39.940498 -16.155899 4278190080
25.978201 -39.940601 -15.9853 4278190080
17.065201 -40.0909 -16.1327 4278190080
16.7981 -40.153599 -15.9006 4278190080
25.8386 -40.153 -16.054899 4278190080
17.1033 -40.377102 -15.9591 4278190080
17.454599 -40.324902 -16.219601 4278190080
25.715099 -40.476898 -15.8998 4278190080
17.400101 -40.530399 -16.0501 4278190080
17.209801 -40.7453 -15.7886 4278190080
17.818001 -41.1418 -16.044001 4278190080
25.3244 -41.095501 -15.9856 4278190080
25.4774 -40.907902 -15.9319 4278190080
18.181601 -41.441799 -16.063801 4278190080
17.817301 -41.358601 -15.8847 4278190080
24.771 -42.009201 -16.0109 4278190080
18.901501 -42.076 -16.1507 4278190080
19.179501 -42.407001 -16.134199 4278190080
18.9156 -42.410301 -15.9407 4278190080
24.5956 -42.3848 -15.8874 4278190080
19.377001 -42.612099 -16.143101 4278190080
19.281 -42.749001 -15.9788 4278190080
24.083799 -42.641899 -16.2075 4278190080
19.5406 -42.774502 -16.1392 4278190080
23.882601 -42.864498 -16.116699 4278190080
24.1152 -42.804901 -15.9998 4278190080
23.9074 -43.017799 -15.9288 4278190080
19.643801 -43.077202 -15.9798 4278190080
19.980101 -43.190701 -16.0937 4278190080
23.687201 -43.131001 -15.962 4278190080
20.0944 -43.436501 -15.9569 4278190080
22.4974 -43.663898 -16.007099 4278190080
20.580999 -43.527599 -16.163601 4278190080
20.367001 -43.566502 -16.0063 4278190080
22.1028 -43.701698 -16.0646 4278190080
20.6173 -43.748402 -15.9084 4278190080
20.5888 -31.362 -15.7867 4278190080
20.892799 -31.388599 -15.754 4278190080
21.2265 -31.364401 -15.8497 4278190080
20.106001 -31.6388 -15.7407 4278190080
20.371599 -31.458799 -15.7195 4278190080
21.6413 -31.576401 -15.7206 4278190080
19.821501 -31.895399 -15.722 4278190080
19.486 -32.226898 -15.8731 4278190080
22.5923 -32.179298 -15.6594 4278190080
22.882 -32.209999 -15.8527 4278190080
23.142599 -32.3773 -15.8253 4278190080
23.24 -32.530102 -15.6496 4278190080
23.571899 -32.765598 -15.6571 4278190080
23.829399 -32.940201 -15.8005 4278190080
24.4394 -33.748501 -15.6289 4278190080
24.1077 -33.382999 -15.6902 4278190080
17.4055 -34.582901 -15.8369 4278190080
25.381001 -34.4375 -15.7161 4278190080
25.5035 -34.608501 -15.6363 4278190080
25.5816 -34.827 -15.193 4278190080
16.903799 -35.2668 -15.5125 4278190080
17.1047 -34.7356 -15.3284 4278190080
25.952101 -35.3181 -15.7293 4278190080
16.802 -35.5714 -15.7044 4278190080
26.270901 -35.466599 -15.8005 4278190080
26.485701 -35.663799 -15.731 4278190080
26.588699 -35.856998 -15.7328 4278190080
16.440701 -36.172699 -15.9118 4278190080
16.193701 -36.5513 -15.8655 4278190080
26.688601 -36.555199 -15.5268 4278190080
15.8829 -36.926399 -15.6971 4278190080
15.8213 -37.397598 -15.8499 4278190080
15.7117 -37.293201 -15.6381 4278190080
15.6861 -37.768902 -15.7045 4278190080
15.5936 -38.030499 -15.6431 4278190080
15.7063 -38.382198 -15.7436 4278190080
26.384399 -38.591702 -16.0481 4278190080
26.436899 -38.919102 -15.7249 4278190080
26.302299 -39.182899 -15.8157 4278190080
16.195801 -39.468498 -15.774 4278190080
26.1971 -39.521599 -15.7736 4278190080
16.35 -39.651699 -15.8084 4278190080
16.2936 -39.806599 -15.6693 4278190080
26.0819 -39.895302 -15.7375 4278190080
16.334801 -40 -15.5974 4278190080
16.551399 -40.2066 -15.6691 4278190080
16.763201 -40.335499 -15.7719 4278190080
16.5121 -40.333199 -15.5727 4278190080
25.9102 -40.301701 -15.6519 4278190080
16.5646 -40.5695 -15.427 4278190080
25.572599 -40.8792 -15.6442 4278190080
17.5683 -41.155899 -15.835 4278190080
25.3582 -41.180901 -15.6809 4278190080
17.5837 -41.464401 -15.6464 4278190080
17.2885 -41.302601 -15.4977 4278190080
25.2216 -41.353802 -15.7789 4278190080
17.8517 -41.6348 -15.7429 4278190080
18.128099 -41.671001 -15.8805 4278190080
25.166401 -41.585999 -15.5595 4278190080
18.042999 -41.934502 -15.6542 4278190080
18.3426 -42.019299 -15.7784 4278190080
24.965099 -41.886101 -15.7119 4278190080
18.6394 -42.121601 -15.9203 4278190080
18.5844 -42.3862 -15.7094 4278190080
18.9643 -42.753201 -15.7563 4278190080
24.4946 -42.579102 -15.8368 4278190080
24.0327 -43.055 -15.731 4278190080
24.3354 -42.761101 -15.7939 4278190080
19.347601 -43.186298 -15.6927 4278190080
23.828699 -43.1633 -15.8032 4278190080
19.844999 -43.326599 -15.9071 4278190080
19.665199 -43.351002 -15.772 4278190080
19.8752 -43.5186 -15.7413 4278190080
20.1635 -43.6506 -15.7782 4278190080
22.9757 -43.621799 -15.8393 4278190080
20.8773 -43.985401 -15.7443 4278190080
22.0921 -43.954399 -15.7255 4278190080
21.216999 -44.075802 -15.7014 4278190080
21.589199 -44.0294 -15.7206 4278190080
20.219601 -31.6367 -15.4713 4278190080
20.4452 -31.539301 -15.4421 4278190080
20.6422 -31.4667 -15.5737 4278190080
20.9457 -31.5408 -15.4715 4278190080
21.3417 -31.584 -15.5213 4278190080
20.0084 -31.779301 -15.4964 4278190080
21.7799 -31.8195 -15.4305 4278190080
19.4935 -32.129398 -15.329 4278190080
19.641899 -32.013 -15.4774 4278190080
22.438299 -32.199799 -15.5096 4278190080
22.6203 -32.304798 -15.4543 4278190080
22.8745 -32.3451 -15.5887 4278190080
19.365299 -32.347301 -15.1546 4278190080
23.195299 -32.6614 -15.2608 4278190080
23.495001 -32.851898 -15.3127 4278190080
23.827499 -33.096199 -15.5207 4278190080
18.524401 -33.231098 -15.1668 4278190080
24.102501 -33.471802 -15.4367 4278190080
17.8358 -33.9716 -15.5859 4278190080
18.1467 -33.533199 -15.2181 4278190080
24.327499 -33.7686 -14.9397 4278190080
24.605 -34.007999 -15.3903 4278190080
17.411301 -34.381001 -15.4991 4278190080
24.7971 -34.104599 -15.5269 4278190080
25.121 -34.2873 -15.5518 4278190080
25.311899 -34.445 -15.4945 4278190080
17.3631 -34.57 -15.7224 4278190080
25.424299 -34.572399 -15.4856 4278190080
25.8057 -35.3186 -15.5405 4278190080
16.697001 -35.664001 -15.5708 4278190080
16.788 -35.493801 -15.4906 4278190080
26.3106 -35.6343 -15.5335 4278190080
16.5585 -35.8218 -15.498 4278190080
25.999201 -35.5019 -15.4399 4278190080
26.461901 -35.785702 -15.4669 4278190080
16.365601 -36.129799 -15.5645 4278190080
16.058001 -36.521301 -15.5006 4278190080
15.8328 -36.810799 -15.4442 4278190080
15.7015 -37.09 -15.4469 4278190080
26.6954 -37.518101 -15.6892 4278190080
26.781799 -37.827 -15.3087 4278190080
15.4992 -38.038601 -15.5181 4278190080
15.5394 -37.812401 -15.502 4278190080
15.5558 -38.276299 -15.6059 4278190080
15.4604 -38.283001 -15.4523 4278190080
26.784401 -38.4599 -15.0337 4278190080
15.5473 -38.5168 -15.5343 4278190080
15.6494 -38.7803 -15.5676 4278190080
26.5821 -38.859501 -15.3924 4278190080
15.3204 -38.957298 -15.1369 4278190080
15.9344 -39.439701 -15.5583 4278190080
26.371 -39.370602 -15.5128 4278190080
16.123899 -39.635899 -15.6125 4278190080
15.8267 -39.625599 -15.3633 4278190080
26.2962 -39.754501 -15.2492 4278190080
26.170799 -39.805199 -15.5665 4278190080
16.083799 -39.809601 -15.4853 4278190080
26.075001 -40.1889 -15.2884 4278190080
25.764999 -40.5765 -15.6214 4278190080
17.2304 -41.050499 -15.6102 4278190080
25.436001 -41.174099 -15.4481 4278190080
17.358801 -41.486401 -15.4597 4278190080
25.3039 -41.339401 -15.5323 4278190080
17.6064 -41.6422 -15.5752 4278190080
17.4205 -41.634399 -15.4423 4278190080
17.8046 -41.847198 -15.58 4278190080
17.482 -41.854099 -15.3149 4278190080
25.0464 -41.981701 -15.2918 4278190080
17.824301 -42.147099 -15.3335 4278190080
24.7988 -42.240501 -15.6017 4278190080
18.444201 -42.498501 -15.5316 4278190080
18.2034 -42.348202 -15.454 4278190080
18.6691 -42.689098 -15.5882 4278190080
18.429001 -42.728901 -15.3533 4278190080
24.5527 -42.6562 -15.5297 4278190080
18.8731 -42.876301 -15.6258 4278190080
18.804899 -43.063702 -15.4149 4278190080
24.2509 -42.9771 -15.5532 4278190080
19.0369 -43.041401 -15.6163 4278190080
19.1327 -43.306198 -15.4657 4278190080
19.627001 -43.547501 -15.5477 4278190080
24.0098 -43.2262 -15.4786 4278190080
23.716999 -43.328499 -15.6557 4278190080
19.882299 -43.731201 -15.5108 4278190080
23.4445 -43.582199 -15.5148 4278190080
20.1761 -43.8671 -15.5316 4278190080
20.469299 -44.0494 -15.4817 4278190080
22.7031 -43.964199 -15.5126 4278190080
23.198601 -43.802601 -15.4033 4278190080
20.6957 -44.1203 -15.5274 4278190080
21.781401 -44.159901 -15.4918 4278190080
21.426201 -44.181198 -15.531 4278190080
22.343599 -44.0867 -15.4817 4278190080
20.896601 -44.196098 -15.5067 4278190080
21.1611 -44.25 -15.4548 4278190080
20.721399 -31.5856 -15.3006 4278190080
20.1117 -31.7768 -15.2443 4278190080
20.4559 -31.676901 -15.0405 4278190080
21.127701 -31.6609 -15.2423 4278190080
21.561701 -31.799 -15.1998 4278190080
21.806499 -31.9293 -15.2187 4278190080
19.647499 -31.989 -15.1917 4278190080
19.874001 -31.886299 -15.2857 4278190080
21.9685 -32.069698 -15.1663 4278190080
22.1926 -32.245098 -15.0794 4278190080
22.4268 -32.289501 -15.2788 4278190080
22.8006 -32.453999 -15.2512 4278190080
23.250401 -32.806099 -14.5914 4278190080
23.618999 -33.013699 -15.1364 4278190080
23.776899 -33.118599 -15.28 4278190080
23.8675 -33.279701 -15.0779 4278190080
17.683399 -33.935501 -15.2361 4278190080
17.3487 -34.279598 -15.2012 4278190080
24.6824 -34.116901 -15.1083 4278190080
24.9111 -34.260601 -15.2641 4278190080
25.063999 -34.394501 -15.1676 4278190080
25.2836 -34.541599 -15.1358 4278190080
16.723101 -35.179001 -15.0392 4278190080
16.9193 -34.992298 -15.2391 4278190080
16.793501 -35.3806 -15.3443 4278190080
16.6423 -35.571201 -15.2929 4278190080
16.4095 -35.865101 -15.2482 4278190080
26.216 -35.701599 -15.2297 4278190080
16.181601 -36.185799 -15.2437 4278190080
26.4818 -35.975601 -14.9745 4278190080
26.6418 -36.228401 -15.381 4278190080
15.8924 -36.562401 -15.181 4278190080
15.7293 -36.9048 -15.2729 4278190080
15.6193 -37.1451 -15.1603 4278190080
26.780001 -36.9422 -15.0952 4278190080
15.5334 -37.507801 -15.2964 4278190080
26.7822 -37.321499 -15.3317 4278190080
15.3958 -37.9925 -15.2773 4278190080
15.3692 -38.484001 -15.2641 4278190080
26.7106 -38.966702 -14.7825 4278190080
15.5818 -39.365898 -15.2739 4278190080
26.4956 -39.2752 -15.3195 4278190080
26.444099 -39.504002 -15.2149 4278190080
15.8406 -39.861698 -15.2412 4278190080
16.288601 -40.202301 -15.4439 4278190080
25.903299 -40.5354 -15.2399 4278190080
25.791 -40.6623 -15.38 4278190080
16.7619 -40.958401 -15.2844 4278190080
25.6931 -40.894501 -15.2408 4278190080
16.9422 -41.169998 -15.2915 4278190080
16.690599 -41.222599 -15.0502 4278190080
25.564899 -41.090199 -15.2122 4278190080
17.1556 -41.422501 -15.317 4278190080
25.3762 -41.394299 -15.1401 4278190080
17.208799 -41.577 -15.2869 4278190080
25.2096 -41.675701 -15.1883 4278190080
17.902399 -42.4911 -15.0925 4278190080
25.0235 -42.1465 -15.1602 4278190080
24.883801 -42.3349 -15.2116 4278190080
24.6511 -42.720501 -15.061 4278190080
18.509899 -43.229599 -14.9274 4278190080
24.2726 -43.0686 -15.2845 4278190080
19.059 -43.576099 -15.1596 4278190080
19.3675 -43.5779 -15.3701 4278190080
23.889601 -43.4011 -15.2632 4278190080
19.625 -43.827801 -15.2901 4278190080
19.8829 -43.987801 -15.2646 4278190080
20.129299 -44.090199 -15.2619 4278190080
20.6322 -44.259602 -15.2954 4278190080
22.132 -44.148899 -15.441 4278190080
21.957899 -44.3036 -15.2433 4278190080
22.4436 -44.2565 -15.2003 4278190080
22.806 -44.121201 -15.2371 4278190080
23.172899 -43.979599 -15.0906 4278190080
20.955999 -44.364498 -15.2207 4278190080
21.450001 -44.316101 -15.2824 4278190080
20.906799 -31.6917 -14.9582 4278190080
21.308701 -31.7976 -14.9307 4278190080
19.526699 -32.108799 -15.0485 4278190080
19.682301 -32.006302 -14.9458 4278190080
19.834499 -31.924601 -15.0101 4278190080
20.125999 -31.8526 -14.827 4278190080
21.573999 -31.889999 -14.9401 4278190080
21.782101 -32.000099 -14.9615 4278190080
22.021099 -32.2272 -14.5246 4278190080
22.455099 -32.420502 -14.6301 4278190080
22.8594 -32.596699 -14.66 4278190080
23.5539 -33.027401 -14.5789 4278190080
18.3652 -33.1716 -14.5713 4278190080
24.038601 -33.478901 -14.6713 4278190080
17.938499 -33.556499 -14.8423 4278190080
17.548901 -33.951099 -14.9852 4278190080
17.187099 -34.241501 -14.8322 4278190080
17.0231 -34.6054 -14.9993 4278190080
24.867599 -34.303398 -14.8126 4278190080
25.0802 -34.476898 -14.8849 4278190080
16.901501 -34.821701 -15.0135 4278190080
25.7952 -35.2327 -15.0007 4278190080
25.8283 -35.3801 -15.2412 4278190080
16.457199 -35.5509 -14.9773 4278190080
16.2579 -35.862499 -14.9926 4278190080
25.974899 -35.566399 -15.1375 4278190080
16.0488 -36.124699 -14.9505 4278190080
15.7661 -36.6278 -14.9806 4278190080
15.8128 -36.389301 -14.847 4278190080
15.6972 -36.842499 -15.0419 4278190080
26.709999 -36.581402 -15.0052 4278190080
15.5593 -37.329102 -15.1367 4278190080
15.4846 -37.408901 -15.0476 4278190080
15.5347 -37.257599 -15.0009 4278190080
26.8969 -37.528301 -14.8147 4278190080
15.2866 -37.730801 -14.9157 4278190080
26.881701 -38.359901 -14.6919 4278190080
15.2 -38.154099 -14.9598 4278190080
15.1545 -38.501499 -14.9629 4278190080
26.5662 -39.406799 -14.8694 4278190080
15.4781 -39.627998 -15.0491 4278190080
26.4538 -39.627899 -15.0071 4278190080
15.4307 -39.909901 -14.8374 4278190080
26.4189 -39.850498 -14.6571 4278190080
15.9108 -40.127102 -15.1545 4278190080
15.4891 -40.169201 -14.7339 4278190080
16.232 -40.331799 -15.3258 4278190080
15.8544 -40.4114 -14.9103 4278190080
16.0408 -40.676998 -14.8914 4278190080
16.2962 -40.878899 -14.9588 4278190080
16.459801 -41.113201 -14.9198 4278190080
25.798599 -40.782001 -15.1093 4278190080
25.7033 -40.969101 -15.0228 4278190080
16.9498 -41.383499 -15.1743 4278190080
16.747601 -41.419899 -14.986 4278190080
17.017099 -41.679199 -15.0299 4278190080
25.283199 -41.6166 -14.9606 4278190080
25.1775 -41.855499 -14.7199 4278190080
25.044701 -42.184299 -14.883 4278190080
18.173401 -42.726101 -15.1275 4278190080
24.390699 -43.031101 -14.7373 4278190080
23.721399 -43.583599 -14.9768 4278190080
19.378401 -43.883499 -15.1271 4278190080
19.210899 -43.892799 -15.0035 4278190080
19.3766 -44.083401 -14.9129 4278190080
19.636499 -44.101101 -15.0566 4278190080
20.2414 -44.312 -15.0304 4278190080
23.0784 -44.167 -14.8736 4278190080
22.8442 -44.222801 -15.0145 4278190080
19.9135 -44.204498 -15.0582 4278190080
20.625 -44.444599 -14.9948 4278190080
21.648199 -44.456402 -15.0129 4278190080
21.216999 -44.448299 -15.0477 4278190080
20.908701 -44.498001 -14.9623 4278190080
22.0823 -44.448601 -15.001 4278190080
20.384501 -31.754101 -14.707 4278190080
19.8752 -31.989599 -14.6787 4278190080
19.624201 -32.1278 -14.7016 4278190080
22.6343 -32.540901 -13.9241 4278190080
23.806 -33.23 -14.5001 4278190080
17.6446 -33.7075 -14.5919 4278190080
17.365801 -33.897701 -14.543 4278190080
16.943199 -34.258499 -14.4777 4278190080
16.943899 -34.375 -14.6774 4278190080
16.8929 -34.576401 -14.7684 4278190080
16.742001 -34.8232 -14.7297 4278190080
25.172701 -34.541302 -14.6408 4278190080
16.2995 -35.581799 -14.7514 4278190080
16.4499 -35.174999 -14.5809 4278190080
26.084 -35.608799 -14.7913 4278190080
16.1525 -35.800499 -14.7525 4278190080
15.9351 -35.947201 -14.5815 4278190080
15.6307 -36.716801 -14.7852 4278190080
26.8599 -36.903999 -14.6423 4278190080
26.7861 -36.680199 -14.7574 4278190080
15.5486 -37.056599 -14.8689 4278190080
15.3923 -37.361198 -14.8176 4278190080
15.4027 -37.536598 -15.0109 4278190080
14.9912 -38.798698 -14.7211 4278190080
15.0499 -38.311699 -14.7473 4278190080
26.828699 -38.813499 -14.5266 4278190080
15.0189 -39.180698 -14.7868 4278190080
15.1935 -39.365799 -14.9189 4278190080
15.0108 -39.4067 -14.7273 4278190080
15.1447 -39.615501 -14.7346 4278190080
26.5137 -39.636299 -14.7533 4278190080
15.2281 -40.080502 -14.5232 4278190080
26.1401 -40.365002 -14.443 4278190080
25.8641 -40.741501 -14.8703 4278190080
25.6003 -41.1558 -14.8103 4278190080
16.614 -41.4715 -14.8037 4278190080
25.464399 -41.366901 -14.7642 4278190080
17.2773 -42.208 -14.7213 4278190080
25.365999 -41.524799 -14.6286 4278190080
24.9139 -42.437901 -14.859 4278190080
17.9832 -42.8493 -14.7922 4278190080
24.296801 -43.119701 -14.1702 4278190080
19.028999 -43.854 -14.7898 4278190080
23.6954 -43.6992 -14.5342 4278190080
19.3234 -44.158401 -14.706 4278190080
22.886101 -44.356602 -14.4825 4278190080
23.175699 -44.177601 -14.6195 4278190080
23.314301 -44.0275 -14.7628 4278190080
19.6826 -44.2995 -14.7706 4278190080
20.022699 -44.455601 -14.6965 4278190080
22.6311 -44.393902 -14.8795 4278190080
22.3381 -44.519699 -14.7976 4278190080
20.350201 -44.523399 -14.7245 4278190080
20.6964 -44.577202 -14.7449 4278190080
21.1891 -44.567001 -14.8065 4278190080
21.7971 -44.590698 -14.7514 4278190080
22.6052 -44.500801 -14.6719 4278190080
20.590099 -31.731899 -14.5308 4278190080
20.4216 -31.8482 -14.2274 4278190080
20.836 -31.7113 -14.6056 4278190080
19.826799 -32.092701 -14.2111 4278190080
20.111099 -31.978701 -14.1167 4278190080
21.169901 -31.803301 -14.5931 4278190080
21.580799 -31.9832 -14.5895 4278190080
18.661699 -33.038601 -14.8457 4278190080
18.7383 -32.908501 -14.4112 4278190080
23.866301 -33.2174 -14.0033 4278190080
24.003401 -33.387402 -14.27 4278190080
17.147699 -33.994202 -14.2702 4278190080
16.8204 -34.4599 -14.5243 4278190080
16.751101 -34.634201 -14.5806 4278190080
24.999599 -34.4291 -14.5416 4278190080
16.6665 -34.679501 -14.4319 4278190080
25.407301 -34.702099 -14.4761 4278190080
25.7183 -35.023701 -14.4761 4278190080
16.633699 -34.9743 -14.6725 4278190080
25.790001 -35.165501 -14.662 4278190080
25.9582 -35.403801 -14.5583 4278190080
16.1779 -35.505402 -14.4789 4278190080
26.119301 -35.533298 -14.2294 4278190080
15.5924 -36.396702 -14.4614 4278190080
26.3927 -35.872898 -14.0698 4278190080
26.6973 -36.384102 -14.6864 4278190080
26.8146 -36.621899 -14.4712 4278190080
15.3907 -36.961399 -14.52 4278190080
26.9249 -37.0928 -14.4587 4278190080
27.006001 -37.513 -14.4286 4278190080
15.1874 -37.411098 -14.474 4278190080
15.0612 -37.927502 -14.5478 4278190080
26.9891 -37.988499 -14.5384 4278190080
26.931601 -38.144901 -14.6512 4278190080
14.9154 -38.436401 -14.491 4278190080
14.8319 -39.055698 -14.3861 4278190080
26.9611 -38.359001 -14.4967 4278190080
14.936 -39.410099 -14.5449 4278190080
26.5721 -39.6478 -14.2056 4278190080
26.477699 -39.869499 -14.2424 4278190080
26.371799 -40.092701 -13.833 4278190080
15.1877 -40.350601 -14.2216 4278190080
15.6555 -40.690498 -14.5065 4278190080
15.92 -40.8946 -14.6364 4278190080
15.7028 -40.945702 -14.3841 4278190080
16.188101 -41.1469 -14.6799 4278190080
15.9113 -41.136501 -14.446 4278190080
16.334499 -41.503502 -14.5016 4278190080
25.521799 -41.313599 -14.5005 4278190080
24.9942 -42.370098 -14.6273 4278190080
24.820601 -42.597099 -14.635 4278190080
17.8137 -42.894699 -14.4776 4278190080
18.1703 -43.2122 -14.4782 4278190080
18.6849 -43.714901 -14.3821 4278190080
19.143999 -44.081799 -14.528 4278190080
23.4793 -43.951199 -14.293 4278190080
19.383101 -44.250999 -14.5673 4278190080
19.4042 -44.309799 -14.3522 4278190080
19.757 -44.414101 -14.5878 4278190080
23.197001 -44.203201 -14.2125 4278190080
19.8311 -44.489899 -14.4905 4278190080
20.082701 -44.5658 -14.5125 4278190080
20.3099 -44.6689 -14.3798 4278190080
20.8431 -44.659302 -14.5829 4278190080
21.2547 -44.685501 -14.5558 4278190080
21.7155 -44.724098 -14.4581 4278190080
22.132999 -44.6521 -14.5808 4278190080
22.4891 -44.596298 -14.3484 4278190080
20.8018 -44.744999 -14.3783 4278190080
22.1038 -44.737202 -14.3174 4278190080
20.6516 -31.804701 -14.1657 4278190080
20.847401 -31.7514 -14.2348 4278190080
21.075001 -31.7708 -14.3224 4278190080
21.3584 -31.899599 -14.2377 4278190080
19.4468 -32.329498 -14.2215 4278190080
21.7269 -32.119301 -13.8625 4278190080
22.285299 -32.3932 -13.2938 4278190080
18.022301 -33.355701 -14.3912 4278190080
23.641001 -33.046799 -13.9396 4278190080
24.601101 -34.047401 -14.4505 4278190080
16.8092 -34.381001 -14.3548 4278190080
24.8675 -34.2733 -14.2393 4278190080
25.101999 -34.466999 -14.2936 4278190080
16.240299 -35.1493 -14.209 4278190080
16.478201 -34.779999 -14.201 4278190080
16.120399 -35.375198 -14.2299 4278190080
25.921101 -35.286598 -14.3283 4278190080
15.989 -35.601501 -14.2566 4278190080
15.7812 -35.924599 -14.2895 4278190080
15.5981 -36.080002 -14.0845 4278190080
15.4298 -36.439602 -14.2193 4278190080
26.608801 -36.1661 -14.2851 4278190080
26.7542 -36.421398 -14.1146 4278190080
15.3362 -36.684299 -14.2494 4278190080
26.8689 -36.7929 -14.0627 4278190080
15.1796 -36.929901 -14.1084 4278190080
26.9834 -37.182899 -14.1325 4278190080
15.0433 -37.263 -14.0977 4278190080
27.076099 -37.549599 -14.2095 4278190080
15.0641 -37.564701 -14.3272 4278190080
14.9518 -37.620899 -14.0957 4278190080
27.069799 -38.121899 -14.2586 4278190080
14.8775 -38.0956 -14.2202 4278190080
14.7784 -38.5821 -14.2183 4278190080
26.966999 -38.535301 -14.3153 4278190080
26.932501 -38.770802 -14.1235 4278190080
14.7144 -39.202499 -14.0955 4278190080
26.690701 -39.376202 -14.1792 4278190080
14.8468 -39.749298 -14.1655 4278190080
15.0664 -39.881199 -14.4501 4278190080
26.519501 -39.827999 -13.5207 4278190080
15.4672 -40.897598 -14.0756 4278190080
15.7262 -41.127998 -14.1995 4278190080
25.712 -41.0299 -14.2264 4278190080
15.9706 -41.356998 -14.2144 4278190080
16.4515 -41.756699 -14.269 4278190080
25.4415 -41.3876 -14.1152 4278190080
25.2465 -41.6726 -14.1586 4278190080
16.953199 -42.217999 -14.232 4278190080
17.4921 -42.695099 -14.2612 4278190080
25.0895 -41.9897 -14.116 4278190080
25.0198 -42.250599 -14.3681 4278190080
24.7925 -42.588299 -14.3253 4278190080
17.9042 -43.095402 -14.2059 4278190080
24.6859 -42.666 -14.085 4278190080
18.197399 -43.367199 -14.1751 4278190080
